ncols         250
nrows         80
xllcorner     663000
yllcorner     194700
cellsize      100
NODATA_value  -9999
1431 1383 1337 1283 1252 1215 1164 1105 1048 992 955 927 897 843 800 767 739 703 674 651 632 618 599 579 588 602 614 608 597 609 630 642 646 650 642 623 600 572 550 523 493 468 435 431 431 431 431 431 431 431 431 431 431 432 435 436 437 435 434 434 435 438 439 440 461 485 531 568 606 639 671 661 634 598 559 518 479 460 450 443 441 442 444 444 444 447 447 444 446 447 446 447 446 444 444 445 443 444 444 442 442 441 444 445 443 442 442 442 445 447 454 460 464 464 468 474 482 484 487 496 501 507 511 510 510 514 516 515 518 516 515 508 503 497 495 490 488 485 477 473 478 465 449 446 448 449 452 454 453 450 447 446 442 439 436 431 430 431 431 431 431 431 431 431 431 431 431 431 431 431 431 431 431 431 431 431 431 431 431 431 431 431 431 431 431 431 431 431 431 431 431 431 431 431 431 431 431 432 437 452 462 477 498 516 529 552 560 578 577 584 592 619 660 695 734 795 841 860 898 924 965 1002 1027 1032 1016 1014 1024 1032 1035 1040 1050 1062 1070 1074 1073 1057 1023 975 936 911 889 879 860 837 761 673 601 511 465 433
1438 1403 1365 1335 1318 1267 1206 1133 1064 1014 972 915 849 788 734 705 684 651 633 619 608 595 575 553 557 569 582 576 558 543 552 562 569 583 575 560 537 517 494 467 449 431 431 431 431 431 431 431 431 431 431 431 431 433 436 438 437 437 436 435 435 437 437 439 442 449 468 499 533 570 598 592 565 526 492 464 449 446 445 443 441 444 443 443 443 447 446 444 446 447 446 446 448 448 446 445 444 443 445 443 443 445 446 446 446 446 452 454 456 459 466 473 480 487 495 500 500 502 503 508 518 525 530 533 541 542 545 545 542 543 542 537 532 526 520 515 513 510 505 510 519 499 479 468 463 462 463 464 463 460 456 453 450 447 444 438 434 432 431 431 431 431 431 431 431 431 431 431 431 431 431 431 431 431 431 431 431 431 431 431 431 431 431 431 431 431 431 431 431 431 431 431 431 431 431 434 434 452 485 539 572 577 586 602 614 626 636 653 652 668 688 713 783 809 871 920 951 964 975 986 995 1008 1021 1019 1012 1019 1026 1031 1038 1043 1051 1060 1057 1041 1025 1003 971 931 905 888 874 870 850 834 795 694 610 521 481 449
1472 1432 1395 1357 1325 1275 1217 1151 1099 1048 991 921 852 768 701 666 641 618 601 598 590 577 555 529 524 529 535 531 515 494 473 491 482 484 513 501 479 463 449 431 431 431 431 431 431 431 431 431 431 431 431 431 432 433 434 436 437 437 437 437 436 438 437 438 440 443 442 456 491 522 531 520 496 465 452 443 442 442 443 444 443 444 445 445 442 445 446 445 447 448 449 448 449 449 446 446 445 445 445 446 446 447 448 451 454 456 462 464 471 477 485 487 494 505 513 515 519 520 518 525 535 544 551 555 562 570 576 580 578 578 581 578 569 562 554 550 545 539 534 539 544 536 527 508 481 476 476 477 475 468 462 459 457 452 448 443 439 436 432 431 431 431 431 431 431 431 431 431 431 431 431 431 431 431 431 431 431 431 431 431 431 431 431 431 431 431 431 431 431 431 431 431 431 432 438 456 469 512 573 629 669 688 692 704 720 736 756 766 771 804 831 852 893 912 949 966 973 976 973 986 993 1003 1011 1007 1003 1013 1022 1028 1035 1039 1047 1050 1034 997 968 946 917 889 869 854 848 846 840 836 815 723 616 534 489 443
1445 1399 1366 1333 1299 1252 1217 1179 1130 1058 1005 919 836 752 692 637 603 589 584 580 566 547 529 505 489 489 486 483 468 450 432 431 431 444 458 450 431 431 431 431 431 431 431 431 431 431 431 431 431 431 431 432 432 433 432 435 436 439 438 438 437 439 437 439 441 440 442 444 459 474 470 462 453 445 443 443 444 443 448 443 443 443 445 445 444 445 447 447 449 450 449 448 447 448 447 447 447 447 446 448 450 454 456 459 466 469 475 481 490 495 502 501 506 514 522 526 530 532 533 540 551 562 571 577 581 588 595 602 608 613 619 617 612 599 593 593 593 580 565 558 556 555 558 537 495 492 492 491 486 477 469 468 466 462 455 450 445 441 439 431 431 431 431 431 431 431 431 431 431 431 431 431 431 431 431 431 431 431 431 431 431 431 431 431 431 431 431 431 431 431 431 431 429 440 475 510 543 575 629 684 726 758 768 775 787 804 829 842 853 871 887 908 927 941 957 969 978 976 976 990 993 999 1004 996 992 998 1004 1012 1018 1024 1030 1028 990 954 916 887 867 854 838 833 833 837 840 844 835 774 621 538 487 431
1401 1352 1312 1261 1232 1199 1185 1135 1084 1019 973 870 791 726 667 618 569 568 555 543 530 511 490 471 454 448 445 449 435 431 431 431 431 431 431 431 431 431 431 431 431 431 431 431 431 431 431 431 431 431 432 433 433 434 435 439 452 459 442 438 439 438 437 438 442 441 445 445 444 446 445 442 442 442 444 442 444 444 445 446 445 444 445 443 445 446 448 447 450 452 451 449 450 450 449 448 448 450 450 451 461 471 473 475 479 486 493 502 509 508 513 515 518 526 534 539 543 548 550 553 565 580 592 600 603 610 619 630 636 642 649 651 655 645 636 629 624 612 595 581 571 568 572 555 512 515 507 504 498 489 479 480 477 473 464 458 453 446 441 433 431 431 431 431 431 431 431 431 431 431 431 431 431 431 431 431 431 431 431 431 431 431 431 431 431 431 431 431 431 431 434 448 451 486 536 575 609 623 653 727 772 794 797 795 808 821 842 862 875 881 893 912 932 943 952 964 973 966 969 982 984 988 986 980 985 993 1000 1004 1004 1003 999 980 940 900 860 846 835 826 819 818 823 835 849 856 856 821 626 538 481 431
1378 1314 1255 1201 1151 1123 1105 1057 1008 962 902 810 748 689 632 598 562 536 522 506 489 470 452 440 436 431 431 431 431 431 431 431 431 431 431 431 431 431 431 431 431 431 431 431 431 431 431 431 431 433 434 436 438 449 463 490 516 518 465 438 436 438 438 439 440 439 442 444 444 443 444 441 441 443 445 442 443 443 443 445 445 446 446 445 446 448 449 448 450 451 451 451 451 452 452 452 461 471 474 470 480 487 487 490 494 501 510 515 519 522 525 529 533 539 546 553 556 563 570 569 581 596 612 623 625 635 650 668 678 689 700 707 709 697 677 663 652 639 628 613 600 585 581 558 533 545 528 518 508 507 497 491 487 480 472 467 460 453 445 439 432 431 431 431 431 431 431 431 431 431 431 431 431 431 431 431 431 431 431 431 431 431 431 431 431 431 431 431 444 444 465 491 516 563 599 644 685 680 667 751 791 804 810 798 809 828 849 868 877 883 894 910 926 935 944 956 960 954 958 968 970 971 961 958 975 985 998 1006 1005 989 966 930 886 843 820 816 814 811 812 813 821 837 849 858 862 842 639 538 461 431
1357 1289 1224 1159 1097 1060 1022 988 931 893 828 757 703 650 604 572 548 511 490 475 457 440 433 431 431 431 431 431 431 431 431 431 431 431 431 431 431 431 431 431 431 431 431 431 431 431 431 432 434 434 437 439 450 493 525 570 587 582 538 460 435 437 438 437 438 440 440 442 444 446 446 445 441 448 447 444 445 444 445 446 446 446 445 446 448 449 449 449 450 452 453 454 457 457 456 459 483 498 503 498 501 503 504 504 504 509 518 525 531 535 537 544 550 554 560 568 575 582 588 583 594 611 632 647 656 676 697 721 742 757 761 766 767 749 715 700 688 679 664 653 643 624 600 554 553 557 540 530 531 537 523 503 497 491 482 477 469 462 454 446 439 433 432 433 432 432 431 431 431 431 431 431 431 431 431 431 431 431 431 431 431 431 431 431 431 431 431 439 463 495 529 552 596 640 675 718 750 744 705 751 782 798 813 796 806 832 851 864 869 880 896 910 921 929 937 943 940 940 945 951 948 949 933 931 959 974 987 1001 1012 994 933 882 831 806 800 799 798 799 808 814 822 839 852 862 864 853 670 543 459 431
1345 1280 1217 1146 1085 1040 982 932 879 835 772 713 664 617 583 555 524 487 469 452 441 433 431 431 431 431 431 431 431 431 431 431 431 431 431 431 431 431 431 431 431 431 431 431 431 431 431 435 445 447 461 525 572 611 605 604 600 586 555 490 438 436 438 439 441 441 442 446 444 445 445 445 445 445 446 444 444 445 445 445 447 447 447 446 447 448 450 452 452 454 455 459 468 464 460 461 486 502 501 497 499 502 506 507 512 520 529 538 546 551 553 559 567 571 575 588 595 600 605 604 612 629 653 672 684 712 745 779 809 829 833 831 829 811 789 755 747 732 709 686 685 668 613 561 566 558 549 545 559 565 547 520 510 504 496 490 483 478 470 462 451 443 441 444 442 440 436 434 431 431 431 431 431 431 431 431 431 431 431 431 431 431 430 432 434 443 455 481 527 564 597 630 678 711 732 760 784 772 728 749 775 796 808 797 817 839 852 858 864 876 889 903 911 919 923 926 916 911 916 924 920 916 900 904 934 956 973 988 998 967 899 840 797 787 784 783 784 792 802 810 829 842 853 859 860 845 651 541 456 431
1369 1299 1229 1156 1090 1024 963 902 852 798 732 678 630 588 566 529 491 464 453 444 439 432 431 431 431 431 431 431 431 431 431 431 431 431 431 431 431 431 431 431 431 431 431 431 431 460 469 483 499 504 561 615 651 655 618 593 578 568 528 482 442 435 438 440 442 440 441 442 445 444 443 446 446 447 446 446 445 447 445 443 446 447 447 447 448 450 452 450 451 453 455 464 475 469 463 464 480 491 487 488 502 512 521 521 527 533 541 551 559 566 570 574 583 587 591 605 613 620 625 622 631 654 676 696 710 732 774 819 865 910 949 940 915 893 874 838 805 780 749 700 694 672 617 584 584 577 571 577 581 588 562 533 521 517 515 508 504 501 495 487 479 471 467 466 462 457 452 447 441 438 437 437 435 431 431 433 433 433 432 433 433 435 436 440 458 482 511 553 597 632 665 701 733 749 765 786 801 775 729 751 772 788 793 797 809 827 843 842 852 862 868 877 881 890 896 892 881 882 889 895 888 884 875 883 903 922 938 950 959 921 863 803 773 767 766 767 775 788 798 808 832 842 853 850 845 776 613 521 444 431
1393 1314 1213 1133 1053 977 926 870 823 768 698 647 606 564 535 496 465 448 443 439 437 431 431 431 431 431 431 431 431 431 431 431 431 431 431 431 431 431 431 431 431 431 431 443 471 498 510 525 542 540 572 606 625 623 600 578 557 527 493 456 439 436 437 438 439 440 440 443 447 446 446 446 445 448 449 448 446 445 447 445 446 448 448 448 449 450 452 450 452 453 454 460 476 474 467 466 471 477 490 509 527 535 543 545 549 555 556 562 572 580 587 591 600 605 610 621 634 646 649 648 661 688 721 742 751 760 799 856 912 965 1023 1059 1033 1017 969 918 879 841 797 742 704 662 626 617 605 596 606 614 608 591 563 551 539 536 538 532 529 527 522 518 519 517 507 496 488 480 476 474 465 455 455 456 453 448 446 450 452 451 449 448 453 460 472 494 527 555 589 619 656 693 725 748 763 779 795 812 814 773 727 744 766 777 780 792 805 811 821 823 834 845 845 854 866 876 875 861 853 863 875 875 868 862 859 867 877 883 891 901 908 876 821 771 751 746 750 752 764 777 788 807 831 844 855 850 835 720 591 482 433 431
1340 1259 1149 1078 999 922 870 826 781 723 660 620 587 544 505 469 450 441 437 436 433 431 431 431 431 431 431 431 431 431 431 431 431 431 431 431 431 431 431 431 431 449 467 486 510 545 569 560 559 541 543 572 583 588 578 562 535 499 467 446 439 437 437 437 438 440 441 443 449 449 446 447 446 448 448 448 445 445 447 446 447 448 448 448 449 449 451 450 452 453 455 458 475 478 470 466 471 489 512 534 545 553 560 565 567 576 578 580 588 596 602 611 616 624 630 637 652 665 674 696 709 739 766 785 805 801 831 895 955 1014 1084 1150 1131 1104 1058 996 950 913 869 809 746 683 646 641 624 623 629 634 618 589 580 586 577 569 570 564 561 554 551 547 556 569 559 532 522 524 513 507 497 488 486 486 485 482 489 490 491 498 497 505 512 520 549 586 621 639 666 691 713 734 759 776 792 803 815 832 808 750 729 753 762 764 771 782 792 796 801 803 809 825 825 832 847 857 851 829 822 833 846 851 845 839 843 851 857 861 867 872 867 832 780 746 738 737 740 744 756 767 787 809 826 840 854 852 825 718 575 462 431 431
1236 1151 1082 1024 947 878 823 779 732 676 625 592 561 519 484 453 442 436 432 432 431 431 431 431 431 431 431 431 431 431 431 431 431 431 431 431 431 431 431 440 458 500 529 550 578 612 619 583 550 532 513 528 540 551 557 552 522 491 460 448 443 439 439 439 439 442 442 445 449 449 448 450 448 448 447 449 447 447 447 447 448 448 449 449 450 449 452 451 452 454 455 457 465 467 467 475 496 519 536 548 561 571 576 580 585 595 596 596 605 611 619 627 634 644 649 657 674 692 713 742 756 783 801 820 852 860 872 926 986 1050 1125 1210 1225 1194 1127 1064 1027 987 929 855 780 722 666 654 643 651 655 651 623 602 612 624 625 622 619 613 611 602 596 585 597 617 618 579 573 587 568 555 550 532 521 525 523 522 532 532 543 559 568 571 576 596 626 663 679 698 714 724 742 762 782 796 811 825 835 824 772 734 732 746 752 751 757 761 765 771 775 772 779 800 793 798 816 823 808 793 788 802 811 820 820 820 830 841 850 861 867 864 829 788 746 737 736 736 736 743 753 766 793 815 831 839 843 826 796 708 509 436 431 431
1129 1061 1021 963 904 842 782 735 687 631 593 555 519 486 455 440 435 432 431 431 431 431 431 431 431 431 431 431 431 431 431 431 431 431 431 431 432 433 453 477 510 537 563 580 611 638 630 567 533 515 504 505 513 527 548 549 518 486 465 454 449 442 441 441 442 445 446 446 449 450 449 450 449 448 448 449 449 449 449 448 450 449 449 450 450 450 453 451 453 453 454 456 458 462 478 492 516 534 546 557 572 582 588 596 602 610 614 621 628 630 635 644 654 664 672 678 690 718 742 784 801 823 842 871 902 911 912 953 1010 1078 1160 1255 1288 1264 1211 1162 1100 1046 974 880 797 749 690 674 664 668 675 663 632 627 642 658 666 676 665 665 663 658 654 642 654 665 660 627 633 652 628 609 605 573 575 579 585 590 592 587 607 621 627 630 635 653 674 690 702 723 743 751 769 784 799 810 813 820 815 781 743 724 728 734 736 736 741 745 750 754 755 751 756 768 765 772 785 790 778 776 777 794 806 816 824 828 824 836 845 856 865 846 783 752 736 736 736 736 736 739 749 765 789 813 833 840 831 796 780 747 546 431 431 431
1042 981 948 911 862 797 741 694 642 598 555 507 474 448 436 432 431 431 431 431 431 431 431 431 431 431 431 431 431 431 431 431 431 431 431 434 451 468 499 535 551 568 593 606 626 628 589 536 517 507 503 503 508 527 551 543 512 481 469 462 457 452 450 448 450 453 454 454 454 454 449 449 451 449 450 450 449 450 451 450 450 449 451 449 450 451 453 453 453 452 454 456 457 463 485 506 523 540 557 567 580 594 603 611 620 630 637 640 637 639 649 661 672 683 694 705 712 739 767 801 835 863 890 920 947 958 958 993 1051 1122 1207 1291 1340 1327 1290 1190 1098 1044 998 890 805 752 715 715 702 704 701 671 642 654 673 688 695 713 709 718 713 710 712 718 719 722 717 686 685 709 683 665 675 652 648 634 638 651 650 637 664 677 675 689 699 706 706 711 722 740 755 764 773 783 789 797 796 800 783 753 732 723 729 733 737 744 750 756 757 757 761 755 747 755 763 771 779 783 783 792 800 825 845 859 868 865 837 843 843 835 840 816 769 745 736 736 736 736 742 752 756 775 787 806 822 831 820 800 793 738 431 431 431 431
994 919 881 851 800 745 704 645 594 559 511 462 439 432 431 431 431 431 431 431 431 431 431 431 431 431 431 431 431 431 431 431 431 432 437 468 508 530 559 574 584 614 634 634 627 589 541 509 504 505 502 503 507 526 545 531 502 484 476 472 468 473 467 459 461 463 466 467 464 463 461 458 459 454 452 452 451 452 451 449 451 450 451 451 452 452 454 454 455 455 456 457 458 465 490 518 538 552 566 576 588 604 622 635 649 659 668 663 658 660 673 684 689 703 719 736 748 775 808 824 859 902 933 958 977 994 1010 1044 1103 1182 1269 1351 1385 1336 1264 1163 1069 1010 971 882 804 756 747 742 734 740 721 689 661 678 697 709 721 746 758 770 763 756 759 770 769 772 770 744 726 743 733 720 726 720 716 697 695 705 712 707 720 729 728 737 743 747 743 741 747 753 756 760 763 771 776 782 786 781 763 743 729 730 742 757 772 783 791 784 779 773 785 781 769 773 789 803 800 806 816 838 839 875 914 930 946 921 903 885 874 849 834 815 794 777 763 775 787 804 815 835 836 856 864 843 841 851 845 834 816 715 431 431 431 431
956 877 832 787 743 703 646 596 554 517 466 438 431 431 431 431 431 431 431 431 431 431 431 431 431 431 431 431 431 431 431 431 434 442 475 526 573 597 616 624 635 644 655 642 598 540 510 503 503 505 503 503 507 520 533 521 501 494 488 483 483 499 495 472 472 474 477 480 477 477 475 473 469 462 458 455 452 451 452 452 453 449 454 452 452 453 456 455 457 455 456 457 458 461 483 512 539 559 573 583 596 611 631 651 667 680 691 692 695 701 714 714 710 727 750 770 788 817 858 870 879 924 970 993 1011 1036 1062 1104 1166 1245 1331 1418 1411 1326 1244 1152 1057 982 933 861 810 779 778 767 762 763 738 714 681 700 720 732 744 773 799 810 804 795 791 799 806 809 814 796 777 777 772 761 768 777 775 765 759 763 771 774 787 798 796 785 774 774 770 763 763 762 758 757 758 761 764 772 777 770 756 747 740 744 769 799 826 842 846 829 813 798 814 823 829 834 838 849 866 888 905 940 970 997 1019 1034 1052 1040 1026 963 926 909 875 865 871 915 965 945 923 943 960 966 958 948 927 907 881 872 869 860 839 694 431 431 431 431
887 834 782 728 684 637 582 547 517 481 439 432 431 431 431 431 431 431 431 431 431 431 431 431 431 431 431 431 431 431 431 437 455 484 524 578 633 671 685 693 702 681 675 633 559 512 503 502 504 504 504 504 508 518 525 517 509 506 502 498 503 523 524 498 488 488 492 494 492 493 491 490 481 473 467 460 457 455 455 453 452 451 454 452 454 454 457 456 457 455 461 460 459 462 475 506 535 561 576 589 603 617 635 654 678 701 717 721 737 752 763 755 731 755 782 796 815 842 888 911 914 941 991 1026 1053 1078 1109 1163 1231 1314 1406 1472 1416 1333 1240 1148 1056 973 927 864 833 812 817 810 800 786 759 744 701 711 737 756 768 793 820 830 825 825 824 831 853 854 848 832 814 805 807 799 802 812 821 817 817 818 831 838 848 853 844 826 804 796 790 781 778 777 775 771 768 768 771 777 779 776 772 775 765 771 813 853 884 900 895 873 852 849 864 881 901 914 914 922 952 979 996 1022 1053 1074 1087 1105 1121 1115 1094 1049 1026 999 1009 1009 1014 1029 1024 1007 999 997 1012 1023 1012 984 937 895 867 866 853 837 810 573 431 431 431 431
822 781 723 673 627 580 540 514 482 446 433 431 431 431 431 431 431 431 431 431 431 431 431 431 431 431 431 431 433 438 444 469 503 542 578 628 690 739 752 762 769 716 667 605 528 503 502 502 504 504 505 507 510 522 530 526 521 519 515 515 527 548 552 523 509 507 507 506 506 507 506 503 495 488 475 468 466 463 461 455 453 454 454 454 456 453 456 457 455 458 461 460 460 463 470 499 530 560 580 599 612 626 641 661 690 714 729 746 770 794 810 795 763 780 808 823 838 865 910 941 958 974 1005 1049 1085 1115 1152 1218 1292 1390 1472 1472 1398 1327 1246 1147 1068 975 929 890 860 851 855 850 836 805 784 781 738 723 751 775 795 824 849 852 852 855 858 877 898 893 875 856 845 839 843 833 837 848 860 864 868 877 881 883 888 885 871 858 845 827 816 808 808 808 807 805 802 806 814 816 824 837 840 839 805 816 872 912 940 946 935 923 922 930 949 959 974 992 993 1002 1027 1049 1069 1090 1119 1142 1162 1183 1193 1190 1177 1150 1120 1108 1101 1084 1088 1097 1095 1089 1085 1074 1078 1076 1046 998 951 881 848 843 826 802 749 514 431 431 431 431
762 714 667 620 584 549 520 479 449 434 432 431 431 431 431 431 430 432 432 432 432 432 431 431 431 431 431 431 454 485 509 545 583 620 656 703 751 796 819 827 822 748 658 587 513 503 503 502 503 503 506 510 519 533 541 537 536 535 532 536 561 578 582 551 527 521 521 520 522 522 520 518 510 503 485 477 474 476 474 466 455 454 455 456 455 455 455 456 458 458 458 459 461 462 466 490 527 559 578 601 622 633 646 669 696 720 738 761 794 824 847 829 810 811 829 854 871 897 931 967 1000 1028 1053 1088 1122 1157 1199 1277 1358 1466 1488 1439 1375 1311 1241 1160 1083 993 936 916 885 888 887 879 860 828 813 812 792 752 771 804 822 853 872 879 887 895 902 919 928 920 899 880 879 872 881 875 879 888 898 914 922 928 924 924 923 914 902 889 886 866 855 854 856 859 863 864 865 875 884 898 918 930 920 882 829 860 920 962 989 997 985 993 1011 1026 1032 1036 1050 1064 1074 1084 1101 1122 1146 1177 1209 1239 1250 1265 1274 1269 1261 1257 1242 1232 1212 1208 1188 1190 1192 1188 1192 1185 1143 1119 1069 1012 956 876 833 823 803 763 681 433 431 431 431 431
710 660 619 580 559 527 497 457 436 431 430 432 431 431 431 432 431 431 432 433 434 433 431 431 431 431 431 443 510 563 605 638 671 704 732 766 806 837 849 847 837 760 645 574 507 503 504 502 503 504 507 516 531 545 554 552 550 551 554 569 586 600 607 578 544 536 536 536 539 539 537 534 528 532 527 513 495 489 485 478 471 462 458 460 457 455 455 456 457 459 459 460 461 463 465 483 522 553 569 595 621 636 654 679 700 718 733 756 789 829 865 865 858 845 854 888 908 936 965 998 1037 1075 1111 1143 1177 1211 1260 1337 1466 1510 1472 1407 1347 1284 1217 1141 1070 998 945 928 924 926 925 913 892 861 846 844 828 788 797 836 855 873 894 913 929 934 943 958 963 950 930 905 899 897 906 917 926 928 939 959 969 967 963 964 964 958 951 938 927 922 920 922 932 935 946 947 952 957 974 993 994 972 927 863 840 895 954 1009 1035 1046 1045 1060 1082 1103 1112 1112 1125 1134 1146 1165 1185 1215 1247 1262 1283 1308 1315 1337 1351 1340 1331 1321 1315 1307 1299 1296 1292 1288 1283 1268 1241 1209 1182 1142 1071 1002 957 885 823 799 762 705 571 431 431 431 431 431
667 622 582 557 534 506 466 444 435 434 433 433 433 432 432 432 432 431 433 432 432 432 431 431 431 431 445 501 571 625 678 708 728 753 779 805 830 842 839 832 812 752 635 565 507 504 504 503 505 507 510 527 541 559 570 570 568 568 576 595 612 625 637 594 570 567 557 556 555 557 558 553 548 551 556 553 536 511 510 509 509 494 474 469 460 456 457 457 456 458 460 461 462 464 469 484 511 538 549 573 600 630 657 683 691 702 722 747 776 813 857 890 895 880 886 923 943 979 1009 1036 1074 1120 1165 1206 1241 1279 1335 1414 1511 1491 1437 1379 1319 1261 1188 1114 1053 997 961 949 946 955 957 943 919 889 877 878 871 811 820 867 889 898 924 951 970 983 993 1005 1009 987 961 938 927 931 947 961 974 972 984 994 999 998 1001 1004 1003 1001 1002 997 987 1003 1006 1008 1023 1029 1039 1034 1036 1035 1036 1025 996 943 885 855 883 938 1006 1078 1107 1106 1102 1117 1147 1174 1187 1181 1191 1216 1235 1252 1263 1301 1328 1346 1355 1383 1397 1416 1447 1427 1412 1393 1379 1359 1347 1332 1326 1307 1285 1267 1233 1187 1156 1116 1046 985 949 880 807 764 715 634 475 431 431 431 431 431
629 586 557 534 507 476 446 440 436 435 434 434 435 434 433 433 432 432 434 432 432 431 431 431 433 443 491 568 620 674 717 737 757 789 811 820 825 826 821 811 781 739 638 552 505 504 506 505 506 507 513 535 558 585 598 598 588 587 597 619 630 653 652 611 611 595 576 574 574 577 576 577 576 575 580 571 549 531 542 546 540 515 492 482 467 458 457 456 457 459 460 460 462 465 470 482 498 529 555 576 581 613 643 661 672 706 744 781 809 828 863 902 924 917 930 963 989 1019 1052 1085 1127 1168 1219 1268 1316 1359 1413 1466 1494 1455 1412 1366 1300 1245 1163 1089 1047 1013 982 962 960 976 990 978 952 924 908 904 886 836 861 903 923 931 956 980 1009 1031 1041 1043 1040 1029 1003 982 970 979 996 1009 1016 1013 1018 1023 1032 1041 1054 1056 1056 1049 1054 1056 1056 1066 1067 1069 1074 1073 1073 1062 1056 1044 1026 1002 962 901 872 891 935 990 1067 1138 1175 1182 1167 1175 1208 1241 1249 1234 1246 1289 1316 1323 1325 1353 1393 1423 1433 1458 1481 1503 1534 1528 1518 1511 1484 1448 1427 1417 1370 1321 1273 1242 1197 1141 1105 1064 1005 967 922 853 780 714 658 549 443 431 431 431 431 431
593 559 537 510 478 455 441 438 435 434 434 435 435 434 434 433 433 434 434 433 432 433 431 432 445 486 554 615 668 707 733 759 796 817 811 811 810 807 796 778 745 690 628 537 507 505 504 504 505 508 517 546 582 611 621 616 613 611 614 631 649 676 657 636 635 603 593 593 596 596 595 597 605 606 603 582 555 554 566 564 554 528 509 498 478 460 459 459 460 460 460 461 461 466 466 472 483 526 573 604 600 607 626 647 687 730 777 816 848 877 909 944 966 974 985 1011 1040 1068 1107 1151 1200 1232 1274 1322 1392 1456 1499 1497 1482 1438 1373 1334 1292 1249 1160 1100 1065 1035 1012 990 984 999 1009 1002 988 967 947 937 906 873 904 941 960 970 990 1024 1068 1091 1096 1082 1064 1059 1050 1037 1026 1028 1039 1040 1041 1048 1051 1055 1066 1082 1100 1109 1108 1104 1107 1108 1114 1114 1105 1099 1094 1086 1077 1059 1042 1026 1004 970 926 886 889 932 982 1052 1132 1197 1234 1249 1233 1231 1252 1296 1318 1294 1282 1329 1372 1383 1382 1406 1442 1484 1504 1519 1554 1570 1601 1611 1598 1598 1581 1551 1507 1481 1395 1325 1267 1221 1168 1102 1049 1004 961 935 887 827 750 657 587 492 433 431 431 431 431 431
570 546 520 490 462 445 440 440 436 435 435 437 435 435 435 435 433 433 432 434 433 434 433 445 487 548 611 661 699 728 762 797 813 808 798 794 792 778 760 732 686 628 578 526 507 507 507 508 504 509 529 567 606 627 633 636 642 638 645 646 675 697 673 655 634 615 614 617 619 614 613 614 625 634 619 591 573 582 583 574 563 543 532 519 498 473 463 461 460 459 459 462 463 465 465 464 469 511 565 611 636 647 657 682 724 759 793 821 854 893 943 998 1035 1052 1048 1066 1091 1122 1164 1210 1262 1308 1347 1394 1482 1544 1566 1517 1456 1380 1354 1321 1288 1235 1157 1115 1089 1067 1040 1021 1018 1024 1024 1020 1009 999 984 965 929 911 938 971 998 1011 1037 1081 1121 1142 1150 1135 1104 1084 1082 1074 1059 1063 1076 1072 1074 1089 1097 1098 1110 1126 1137 1144 1146 1151 1152 1149 1159 1163 1151 1138 1130 1115 1096 1067 1042 1028 998 955 915 893 914 975 1043 1131 1221 1265 1299 1319 1308 1298 1318 1367 1389 1357 1323 1363 1417 1459 1465 1491 1502 1540 1580 1596 1677 1708 1735 1745 1703 1673 1629 1585 1517 1459 1389 1310 1254 1191 1142 1069 999 956 913 889 847 796 730 624 529 440 431 431 431 431 431 431
558 533 506 473 456 445 443 442 438 437 439 439 436 436 436 435 434 433 433 433 434 435 440 484 550 605 656 690 719 757 790 799 793 788 779 771 762 739 714 679 626 579 538 512 507 507 506 507 506 515 545 587 620 634 644 662 676 666 665 668 685 706 681 658 649 645 640 640 645 639 634 637 648 657 630 606 600 613 603 593 580 569 565 553 532 501 472 459 461 460 460 462 464 464 466 463 469 497 545 594 628 659 679 702 731 760 788 819 853 894 963 1028 1081 1115 1124 1136 1155 1186 1234 1282 1332 1378 1431 1488 1542 1593 1561 1494 1443 1395 1342 1300 1259 1216 1171 1153 1131 1101 1066 1055 1057 1051 1044 1037 1030 1021 1011 986 951 946 967 996 1026 1048 1082 1116 1143 1161 1174 1174 1150 1119 1112 1097 1086 1091 1102 1109 1125 1149 1164 1167 1168 1177 1177 1182 1185 1181 1177 1187 1188 1200 1194 1177 1157 1146 1125 1088 1058 1030 1005 945 907 904 959 1030 1107 1204 1286 1333 1371 1390 1392 1410 1432 1461 1489 1456 1408 1426 1484 1551 1570 1608 1609 1634 1674 1711 1807 1856 1871 1866 1794 1680 1621 1576 1515 1452 1396 1310 1244 1175 1115 1034 955 922 876 841 802 762 725 663 531 431 431 431 431 431 431 431
539 522 496 462 451 447 445 442 439 439 442 440 437 437 438 435 434 433 435 434 435 439 473 537 591 643 685 718 758 782 786 781 777 770 755 738 724 701 673 638 593 557 523 509 507 508 507 509 511 530 568 606 633 647 672 697 706 693 690 689 693 712 691 678 684 679 678 672 673 667 662 675 682 677 643 630 635 647 632 623 606 600 591 580 560 531 499 469 462 464 461 463 463 463 466 465 472 492 529 571 609 648 664 693 721 755 786 818 851 897 972 1036 1093 1157 1189 1205 1233 1266 1314 1361 1406 1452 1518 1566 1611 1630 1546 1486 1437 1381 1332 1283 1239 1215 1197 1192 1167 1136 1096 1086 1088 1077 1074 1064 1055 1042 1031 1004 974 982 1000 1028 1051 1078 1104 1126 1150 1169 1193 1196 1184 1178 1161 1145 1145 1165 1205 1227 1226 1215 1210 1205 1208 1227 1237 1224 1214 1212 1228 1245 1236 1236 1234 1209 1183 1163 1147 1115 1071 1045 1014 937 912 933 1003 1086 1178 1267 1353 1401 1425 1444 1470 1498 1523 1543 1553 1551 1533 1519 1555 1605 1631 1669 1698 1735 1757 1787 1832 1876 1887 1859 1738 1632 1585 1551 1523 1470 1408 1316 1239 1169 1099 1001 915 886 847 811 770 738 702 647 535 431 431 431 431 431 431 431
528 507 476 455 449 446 445 444 443 441 441 438 439 436 436 436 435 434 434 434 436 470 513 576 626 670 711 752 775 777 771 764 763 748 724 706 690 667 627 591 552 523 512 507 507 509 511 519 528 553 592 634 654 675 703 726 738 725 723 724 726 732 709 708 713 710 724 706 703 696 692 712 720 704 668 655 670 680 664 651 641 626 617 608 584 564 541 501 471 466 463 464 464 464 466 468 472 488 509 550 597 629 665 692 716 750 780 806 839 895 966 1020 1091 1170 1231 1275 1316 1358 1397 1445 1497 1548 1605 1642 1674 1639 1552 1490 1438 1384 1333 1281 1239 1226 1219 1211 1195 1164 1128 1118 1112 1099 1100 1092 1075 1057 1046 1021 999 1016 1035 1060 1080 1104 1123 1141 1165 1183 1209 1213 1218 1235 1216 1212 1231 1267 1299 1320 1294 1258 1237 1226 1219 1250 1272 1259 1249 1251 1274 1291 1282 1265 1248 1228 1203 1178 1161 1121 1073 1057 1001 927 923 962 1034 1140 1236 1318 1389 1422 1439 1461 1487 1520 1549 1567 1566 1573 1569 1565 1588 1610 1632 1672 1718 1770 1801 1818 1840 1862 1868 1835 1649 1586 1546 1528 1507 1457 1388 1287 1221 1155 1087 979 896 857 818 785 759 737 688 642 534 431 431 431 431 431 431 431
512 478 459 454 449 449 447 445 442 444 444 440 439 438 437 436 437 436 434 435 451 496 555 614 656 698 743 761 765 762 756 750 739 716 689 670 647 616 578 540 519 511 510 509 509 511 518 536 553 576 610 648 681 709 743 778 795 783 767 770 768 767 738 741 740 748 763 738 734 722 725 744 751 729 699 690 702 707 695 684 675 657 649 643 622 597 571 541 500 474 463 465 465 463 467 471 470 476 492 540 583 617 658 686 710 744 778 810 841 895 964 1025 1098 1175 1252 1334 1395 1440 1477 1520 1578 1633 1678 1717 1718 1652 1572 1508 1451 1392 1333 1277 1243 1234 1231 1226 1217 1182 1162 1157 1145 1129 1124 1115 1097 1081 1065 1039 1022 1049 1066 1080 1104 1132 1164 1176 1187 1202 1219 1240 1278 1291 1257 1271 1290 1309 1356 1367 1309 1285 1275 1263 1260 1281 1300 1281 1272 1273 1299 1327 1327 1284 1256 1241 1213 1197 1169 1112 1071 1054 973 927 945 995 1070 1178 1242 1302 1374 1411 1424 1439 1462 1495 1524 1544 1546 1566 1578 1576 1582 1596 1616 1663 1715 1762 1806 1832 1848 1855 1853 1825 1597 1549 1515 1497 1466 1424 1353 1253 1190 1123 1051 946 875 829 794 769 739 717 684 644 521 431 431 431 431 431 431 431
487 462 457 454 451 450 449 448 445 447 443 441 438 437 437 437 437 437 435 445 481 530 595 638 679 726 747 753 753 752 746 736 716 687 657 629 597 563 533 515 513 512 512 513 515 519 527 552 571 594 625 663 704 741 796 841 853 839 816 817 813 807 781 785 783 792 795 769 766 754 756 773 783 757 737 732 739 743 736 729 714 704 698 685 664 639 603 565 540 506 466 466 466 465 468 470 469 469 481 524 566 602 642 674 703 733 770 808 845 893 956 1017 1094 1180 1261 1338 1405 1468 1536 1579 1630 1682 1730 1766 1748 1682 1600 1533 1469 1403 1335 1280 1256 1243 1246 1251 1238 1208 1193 1190 1177 1161 1140 1135 1126 1109 1082 1051 1039 1073 1100 1114 1137 1163 1212 1235 1233 1243 1259 1302 1341 1323 1286 1294 1318 1339 1394 1405 1346 1297 1300 1301 1298 1320 1326 1293 1284 1291 1327 1370 1349 1286 1264 1244 1217 1190 1154 1096 1074 1033 953 937 968 1031 1125 1225 1285 1329 1352 1381 1395 1410 1433 1462 1482 1500 1520 1547 1561 1570 1567 1583 1601 1645 1697 1738 1770 1798 1821 1825 1817 1698 1552 1505 1476 1435 1424 1387 1311 1222 1156 1085 999 896 841 794 765 744 722 698 675 634 510 431 431 431 431 431 431 431
466 461 458 456 455 454 452 450 448 450 447 444 439 438 438 436 437 436 438 467 519 568 615 654 706 730 737 743 743 741 733 718 690 660 625 592 552 526 518 512 513 512 515 519 526 534 541 563 587 613 649 683 726 778 835 871 878 873 861 860 857 851 832 840 835 837 823 800 802 791 788 798 814 803 801 810 817 812 807 795 786 782 769 743 718 687 655 602 576 548 489 469 466 468 468 469 469 470 476 509 559 602 634 667 696 725 762 799 838 890 947 1011 1096 1183 1263 1329 1395 1472 1546 1594 1643 1690 1731 1763 1768 1724 1641 1555 1491 1420 1342 1292 1274 1256 1267 1282 1265 1242 1219 1201 1192 1177 1160 1155 1144 1118 1090 1062 1050 1095 1132 1163 1181 1199 1246 1284 1303 1314 1334 1360 1375 1344 1299 1313 1339 1373 1435 1455 1391 1330 1326 1333 1350 1390 1381 1325 1309 1325 1361 1377 1325 1282 1264 1243 1218 1181 1135 1087 1072 999 947 950 992 1075 1202 1307 1377 1408 1394 1395 1408 1427 1445 1463 1475 1479 1498 1521 1532 1543 1550 1567 1588 1631 1674 1704 1729 1753 1767 1774 1771 1628 1507 1468 1433 1385 1364 1330 1250 1183 1131 1057 947 860 815 770 731 714 699 672 636 582 484 431 431 431 431 431 431 431
465 463 459 457 457 454 454 454 452 452 451 444 439 440 436 436 437 436 445 494 559 597 631 678 716 722 726 730 728 726 718 689 652 624 590 554 525 519 516 514 514 513 519 531 543 556 563 579 605 640 679 706 752 817 861 890 904 918 921 916 910 917 904 910 905 891 853 833 837 828 830 840 856 868 889 899 913 902 903 900 908 877 844 816 804 768 714 665 613 569 515 485 474 470 468 470 470 468 472 503 554 597 626 652 683 711 746 788 834 886 950 1018 1118 1197 1270 1329 1391 1459 1520 1565 1613 1656 1696 1731 1759 1752 1672 1579 1508 1433 1349 1312 1286 1276 1298 1311 1289 1268 1239 1213 1205 1198 1184 1172 1149 1118 1088 1059 1071 1123 1158 1196 1215 1229 1280 1336 1372 1387 1404 1424 1424 1379 1322 1322 1353 1401 1468 1501 1461 1372 1351 1364 1403 1448 1446 1385 1352 1352 1362 1350 1308 1278 1265 1245 1211 1170 1123 1088 1059 974 953 965 1009 1163 1312 1377 1423 1444 1435 1430 1447 1468 1471 1472 1487 1479 1486 1497 1506 1516 1522 1538 1565 1611 1644 1670 1689 1708 1720 1727 1705 1553 1473 1434 1380 1329 1304 1262 1175 1124 1079 1022 903 837 798 750 698 678 658 623 571 517 444 431 431 431 431 431 431 431
467 466 462 461 458 457 461 456 452 453 451 447 441 439 437 437 438 439 457 519 580 615 654 695 713 716 721 720 718 712 695 654 619 590 554 527 520 517 516 515 515 516 524 542 561 580 591 605 634 673 718 749 798 847 890 928 957 984 997 999 992 994 978 970 982 956 904 883 885 872 876 899 927 939 954 961 984 974 978 982 992 974 952 920 899 870 790 723 657 607 555 520 492 476 470 471 471 470 475 500 549 586 610 637 668 694 728 777 834 885 963 1048 1144 1212 1270 1313 1371 1423 1485 1529 1571 1616 1656 1693 1727 1738 1677 1593 1511 1434 1358 1324 1295 1295 1318 1330 1309 1283 1260 1241 1224 1224 1208 1184 1158 1115 1082 1071 1100 1135 1177 1221 1240 1255 1309 1384 1438 1466 1477 1485 1469 1429 1373 1353 1383 1436 1504 1539 1508 1424 1386 1410 1453 1490 1488 1444 1398 1369 1348 1325 1294 1276 1264 1234 1193 1154 1116 1088 1044 964 960 985 1060 1228 1350 1394 1433 1441 1436 1443 1457 1480 1481 1479 1481 1477 1497 1509 1502 1505 1510 1517 1551 1599 1625 1644 1663 1676 1685 1687 1666 1554 1464 1414 1334 1280 1251 1187 1113 1062 1026 975 865 819 780 730 669 632 598 554 508 465 431 431 431 431 431 431 431 431
471 469 466 464 462 462 461 456 452 450 449 447 441 440 437 438 437 441 477 539 589 634 676 697 706 711 715 712 709 696 675 634 596 556 529 523 521 519 517 516 515 518 530 550 578 604 622 639 666 704 747 788 833 883 947 998 1038 1070 1073 1071 1062 1060 1040 1029 1043 1001 945 940 936 937 937 956 991 999 1012 1012 1043 1040 1034 1051 1063 1060 1041 1015 975 924 860 756 685 639 591 545 511 482 472 473 471 473 481 503 535 568 602 639 676 704 729 780 843 901 977 1076 1148 1203 1256 1309 1361 1400 1455 1510 1550 1580 1607 1642 1680 1694 1656 1584 1513 1430 1369 1337 1319 1311 1337 1361 1339 1314 1292 1275 1261 1249 1225 1193 1154 1112 1081 1090 1119 1153 1192 1230 1253 1277 1340 1416 1482 1523 1526 1533 1500 1473 1443 1416 1440 1487 1547 1579 1575 1490 1445 1474 1511 1527 1496 1446 1407 1362 1340 1319 1298 1286 1255 1212 1174 1141 1112 1085 1029 961 965 1005 1124 1270 1330 1374 1406 1409 1415 1438 1451 1462 1460 1471 1469 1473 1486 1499 1496 1501 1508 1522 1556 1591 1610 1628 1645 1655 1662 1657 1637 1608 1476 1421 1342 1282 1233 1175 1103 1045 993 924 822 782 755 709 646 598 554 512 478 438 431 431 431 431 431 431 431 431
475 471 469 465 462 459 458 455 451 448 447 446 441 438 437 438 439 455 503 553 604 658 685 693 697 698 701 709 709 687 659 614 568 533 523 522 522 520 518 515 515 522 538 561 591 623 649 677 702 745 793 831 876 936 1008 1057 1105 1134 1121 1118 1114 1107 1088 1089 1091 1037 1007 1014 1010 1010 1004 1020 1050 1054 1067 1069 1086 1098 1094 1111 1124 1117 1103 1069 1025 971 891 769 713 666 620 564 518 484 473 473 473 475 482 497 521 552 590 631 679 713 742 797 858 928 1003 1088 1150 1207 1259 1321 1365 1404 1450 1500 1535 1545 1554 1584 1623 1646 1634 1582 1503 1431 1380 1348 1336 1333 1359 1388 1367 1338 1312 1292 1283 1263 1237 1193 1143 1108 1092 1113 1144 1176 1213 1240 1265 1295 1360 1440 1507 1559 1569 1571 1541 1503 1479 1486 1516 1558 1601 1629 1625 1560 1531 1543 1550 1523 1467 1426 1390 1361 1349 1327 1312 1283 1235 1191 1157 1128 1103 1073 1023 964 975 1026 1208 1273 1314 1342 1364 1376 1394 1416 1432 1426 1439 1467 1468 1472 1486 1490 1493 1504 1513 1533 1565 1588 1608 1626 1635 1635 1626 1612 1586 1540 1431 1399 1339 1285 1233 1176 1120 1051 984 883 770 723 719 677 624 581 536 504 474 433 431 431 431 431 431 431 431 431
479 472 470 465 462 457 456 453 450 447 445 443 440 438 438 438 444 480 529 577 634 675 684 688 690 688 693 704 693 664 621 575 541 527 524 524 522 519 517 516 517 524 545 568 598 632 668 705 734 779 833 872 924 992 1058 1116 1172 1184 1173 1167 1169 1165 1142 1141 1128 1078 1075 1087 1081 1082 1076 1084 1108 1103 1118 1120 1133 1158 1157 1167 1180 1178 1157 1108 1066 1012 943 770 734 683 635 577 523 482 472 473 473 474 477 486 503 532 568 619 670 706 748 807 868 950 1032 1099 1155 1213 1265 1317 1365 1403 1442 1470 1500 1509 1508 1529 1563 1597 1616 1577 1502 1439 1394 1372 1364 1369 1386 1398 1363 1333 1313 1298 1293 1270 1230 1181 1134 1110 1110 1141 1171 1196 1237 1265 1282 1312 1369 1448 1512 1567 1580 1588 1579 1541 1522 1542 1568 1600 1628 1652 1651 1616 1588 1578 1554 1502 1446 1408 1388 1376 1355 1337 1314 1271 1229 1190 1152 1123 1092 1059 1013 969 990 1049 1256 1279 1323 1343 1354 1358 1375 1394 1396 1387 1412 1448 1479 1488 1491 1497 1503 1512 1528 1543 1562 1576 1593 1605 1602 1585 1568 1550 1507 1437 1378 1337 1288 1244 1190 1137 1093 1019 966 840 724 676 671 637 599 560 517 488 463 432 431 431 431 431 431 431 431 431
473 469 467 464 460 456 453 451 448 446 444 442 441 439 438 439 453 502 552 605 652 673 678 682 682 681 689 683 659 623 575 543 531 529 527 530 525 521 518 518 522 531 552 576 610 652 687 726 766 809 859 903 955 1028 1106 1174 1222 1229 1223 1204 1214 1204 1183 1174 1159 1128 1139 1152 1152 1153 1148 1156 1166 1158 1177 1179 1192 1213 1222 1226 1242 1246 1235 1173 1111 1049 1000 801 753 698 654 599 548 485 473 473 473 474 476 480 492 518 555 610 646 692 745 814 873 960 1037 1096 1144 1216 1260 1314 1362 1388 1407 1420 1443 1458 1465 1479 1514 1553 1588 1569 1507 1451 1418 1402 1400 1405 1422 1432 1397 1342 1323 1318 1310 1277 1226 1176 1137 1123 1138 1169 1201 1225 1268 1303 1311 1332 1377 1425 1480 1528 1561 1581 1585 1569 1562 1587 1611 1621 1635 1646 1642 1606 1574 1564 1543 1493 1441 1409 1394 1376 1359 1341 1309 1263 1218 1176 1143 1117 1085 1041 999 975 1005 1101 1240 1279 1295 1319 1330 1336 1352 1371 1370 1382 1414 1450 1485 1505 1505 1506 1514 1528 1549 1568 1584 1605 1611 1594 1569 1541 1523 1505 1456 1367 1321 1274 1226 1180 1134 1095 1059 987 928 776 702 650 623 602 570 528 490 462 438 431 431 431 431 431 431 431 431 431
471 469 466 463 460 455 450 450 446 445 443 442 442 439 439 440 465 523 573 624 655 667 670 671 673 674 675 655 621 580 547 534 531 530 527 526 524 522 519 518 525 537 561 592 635 678 717 758 795 839 882 933 990 1054 1130 1198 1255 1279 1272 1256 1263 1248 1227 1203 1184 1181 1206 1222 1215 1222 1219 1227 1232 1223 1237 1245 1256 1274 1290 1293 1313 1330 1325 1274 1167 1086 1018 837 768 716 674 622 572 497 474 475 475 476 477 479 496 522 555 601 634 679 738 823 884 973 1038 1087 1146 1208 1254 1311 1349 1359 1358 1361 1381 1394 1404 1437 1480 1522 1558 1562 1524 1486 1461 1439 1444 1453 1461 1477 1433 1377 1365 1367 1351 1300 1239 1177 1141 1148 1176 1204 1235 1253 1290 1339 1355 1373 1398 1422 1458 1496 1536 1568 1588 1589 1593 1620 1644 1651 1646 1641 1624 1568 1536 1528 1523 1479 1432 1406 1389 1374 1361 1337 1294 1243 1192 1142 1119 1096 1063 1025 995 991 1031 1124 1232 1279 1304 1314 1320 1330 1336 1350 1363 1390 1416 1443 1478 1508 1515 1526 1537 1551 1571 1599 1623 1650 1645 1603 1569 1526 1502 1489 1445 1362 1299 1244 1193 1137 1095 1071 1024 977 874 743 680 625 584 568 547 506 461 442 431 431 431 431 431 431 431 431 431 431
475 470 467 465 461 456 451 447 444 443 442 442 441 440 441 442 481 541 597 629 649 663 665 664 664 661 654 628 588 556 535 535 533 538 531 524 523 522 521 521 527 549 573 609 655 698 747 785 833 878 925 980 1038 1084 1146 1220 1285 1332 1330 1318 1320 1313 1292 1240 1217 1235 1276 1299 1284 1291 1289 1295 1297 1290 1298 1311 1321 1346 1371 1384 1399 1406 1366 1305 1204 1112 1030 854 775 731 681 638 579 503 477 476 476 479 479 480 504 530 558 598 639 670 724 820 894 985 1045 1087 1143 1203 1253 1299 1325 1314 1295 1307 1326 1333 1355 1401 1458 1503 1542 1564 1545 1530 1508 1488 1499 1509 1517 1514 1458 1417 1418 1420 1407 1345 1266 1197 1159 1184 1220 1246 1263 1274 1313 1363 1406 1436 1455 1461 1466 1483 1529 1566 1590 1602 1619 1639 1658 1677 1662 1637 1605 1551 1504 1492 1502 1468 1436 1410 1392 1381 1363 1337 1304 1253 1199 1151 1117 1094 1057 1015 998 1011 1063 1140 1247 1303 1321 1329 1338 1349 1356 1360 1379 1399 1419 1436 1462 1484 1506 1537 1567 1589 1614 1642 1680 1711 1690 1627 1591 1552 1519 1494 1461 1400 1327 1265 1219 1161 1120 1082 1039 1001 900 802 710 629 583 540 514 483 451 434 431 431 431 431 431 431 431 431 431 431
479 475 470 468 463 457 450 445 444 443 442 441 441 441 440 452 499 557 614 629 635 648 655 661 650 632 624 593 564 542 535 541 538 539 530 524 526 523 522 523 534 562 588 625 673 717 764 816 866 917 966 1025 1085 1134 1184 1243 1316 1380 1390 1377 1383 1381 1346 1276 1250 1281 1337 1372 1361 1363 1368 1370 1365 1358 1369 1386 1401 1429 1461 1475 1463 1422 1351 1267 1180 1100 1003 854 773 722 678 649 577 509 479 477 477 480 480 483 506 534 559 589 624 664 707 804 910 995 1049 1094 1144 1200 1245 1284 1297 1257 1237 1245 1269 1298 1337 1404 1470 1503 1522 1534 1547 1575 1579 1557 1561 1576 1583 1558 1500 1463 1456 1444 1433 1380 1295 1231 1187 1214 1260 1286 1288 1306 1351 1402 1447 1483 1514 1507 1486 1494 1537 1577 1606 1622 1638 1651 1664 1665 1637 1604 1571 1530 1487 1469 1482 1472 1454 1419 1398 1384 1366 1338 1315 1264 1206 1169 1126 1085 1041 1008 1004 1027 1086 1160 1247 1287 1311 1329 1344 1356 1372 1380 1387 1404 1420 1434 1449 1469 1503 1553 1613 1652 1676 1699 1732 1756 1744 1679 1614 1573 1539 1511 1482 1448 1400 1331 1263 1227 1193 1134 1090 1037 950 877 788 676 610 550 497 469 448 437 431 431 431 431 431 431 431 431 431 431
485 481 475 473 465 458 451 445 443 441 442 443 441 442 444 467 513 577 622 628 627 634 641 647 624 610 592 562 541 536 536 538 539 534 530 527 525 523 523 528 545 574 604 647 696 747 802 860 910 959 1007 1068 1131 1195 1248 1283 1343 1417 1443 1432 1442 1438 1389 1316 1293 1329 1395 1444 1455 1453 1456 1457 1455 1439 1446 1472 1490 1508 1535 1516 1461 1383 1310 1224 1130 1052 951 844 778 717 668 635 572 513 482 480 479 480 483 485 500 531 560 588 620 677 712 770 927 999 1049 1106 1151 1192 1231 1251 1243 1201 1174 1193 1233 1278 1344 1418 1471 1473 1482 1496 1518 1570 1625 1631 1632 1646 1646 1608 1550 1502 1479 1465 1451 1409 1330 1266 1214 1220 1269 1296 1325 1353 1402 1458 1472 1501 1540 1541 1514 1514 1554 1609 1651 1658 1647 1643 1647 1622 1588 1554 1524 1493 1460 1448 1452 1452 1436 1406 1390 1372 1352 1324 1299 1259 1209 1170 1114 1072 1029 1012 1019 1052 1114 1182 1246 1271 1284 1299 1320 1339 1367 1388 1392 1402 1414 1425 1440 1469 1508 1575 1639 1672 1688 1707 1733 1763 1766 1718 1642 1582 1556 1542 1521 1497 1467 1422 1365 1286 1242 1185 1122 1048 971 890 799 689 611 547 492 461 442 433 431 431 431 431 431 431 431 431 431 431
490 484 478 472 464 458 451 447 444 443 442 443 443 445 461 499 543 593 624 628 621 618 631 629 611 598 569 547 539 539 540 538 540 534 530 526 527 528 528 538 561 590 628 679 734 813 872 919 964 1012 1062 1118 1168 1233 1294 1341 1387 1442 1485 1489 1499 1484 1448 1401 1375 1408 1460 1510 1540 1548 1557 1558 1558 1535 1526 1540 1545 1552 1546 1507 1432 1345 1263 1181 1088 1005 922 847 782 727 670 623 571 522 486 483 481 482 484 490 499 525 560 597 629 691 726 771 889 998 1075 1128 1167 1199 1219 1215 1185 1141 1112 1146 1201 1271 1351 1414 1431 1428 1442 1462 1492 1535 1602 1662 1683 1697 1694 1660 1602 1542 1507 1486 1469 1436 1369 1312 1246 1219 1249 1299 1360 1397 1454 1508 1513 1510 1538 1557 1554 1542 1573 1637 1686 1704 1671 1640 1617 1578 1534 1507 1480 1445 1426 1415 1410 1410 1401 1384 1368 1350 1327 1300 1278 1258 1220 1173 1112 1062 1021 1018 1036 1086 1144 1200 1250 1279 1287 1289 1300 1323 1350 1367 1378 1384 1399 1415 1435 1466 1503 1563 1608 1638 1659 1690 1734 1775 1771 1718 1645 1592 1572 1563 1552 1537 1508 1498 1487 1459 1274 1214 1135 1054 974 884 772 663 597 536 490 459 431 431 431 431 431 431 431 431 431 431 431 431
495 487 480 473 465 459 453 448 445 444 443 442 442 445 469 518 571 612 622 619 613 611 620 612 602 584 559 546 543 541 539 539 538 533 534 535 535 538 541 552 580 618 664 723 805 905 952 990 1031 1081 1131 1177 1211 1261 1332 1397 1445 1487 1532 1555 1555 1539 1521 1493 1480 1502 1536 1570 1604 1624 1627 1606 1599 1582 1556 1530 1519 1518 1501 1468 1398 1317 1216 1128 1041 968 908 855 787 731 672 623 582 534 483 484 483 482 489 497 503 522 559 597 635 687 726 781 855 976 1088 1146 1171 1196 1196 1171 1124 1086 1062 1116 1191 1285 1354 1387 1383 1393 1403 1423 1454 1503 1571 1644 1695 1715 1724 1708 1659 1588 1542 1509 1480 1457 1411 1353 1284 1243 1236 1286 1349 1404 1445 1501 1527 1516 1542 1574 1581 1573 1598 1646 1693 1714 1677 1627 1580 1532 1489 1463 1437 1410 1392 1378 1371 1370 1370 1363 1346 1333 1308 1283 1257 1234 1199 1146 1099 1051 1029 1032 1058 1118 1170 1203 1247 1287 1304 1306 1308 1318 1336 1349 1365 1382 1409 1433 1460 1490 1530 1573 1607 1625 1657 1698 1756 1805 1803 1717 1647 1589 1575 1569 1562 1557 1550 1549 1521 1485 1329 1208 1126 1055 970 857 700 631 589 546 499 456 431 431 431 431 431 431 431 431 431 431 431 431
493 486 481 475 468 464 457 447 445 444 445 444 446 457 489 551 598 615 620 616 618 615 613 605 590 571 554 546 544 540 540 542 542 542 549 551 552 552 554 567 603 647 702 784 906 989 1027 1063 1109 1155 1201 1247 1289 1335 1403 1467 1517 1551 1594 1621 1624 1610 1597 1570 1580 1599 1602 1612 1636 1626 1602 1557 1536 1507 1501 1468 1455 1463 1445 1402 1335 1252 1155 1072 997 922 863 823 771 721 671 628 590 540 488 485 483 486 493 500 507 518 555 586 639 683 717 765 834 921 1070 1138 1162 1180 1175 1140 1074 1032 1039 1114 1192 1276 1323 1337 1339 1363 1367 1383 1420 1492 1579 1649 1699 1730 1752 1748 1713 1648 1593 1565 1540 1505 1462 1390 1322 1283 1256 1264 1310 1362 1396 1428 1463 1482 1510 1542 1553 1562 1588 1627 1665 1685 1653 1600 1549 1501 1461 1437 1421 1408 1393 1374 1357 1347 1342 1332 1317 1303 1286 1260 1235 1202 1166 1123 1079 1052 1044 1049 1087 1151 1200 1219 1245 1284 1313 1333 1345 1352 1364 1375 1402 1430 1466 1494 1520 1542 1571 1599 1628 1657 1691 1736 1797 1847 1805 1707 1640 1593 1584 1581 1571 1574 1582 1574 1540 1506 1293 1220 1148 1064 944 781 674 616 577 532 492 453 433 431 431 431 431 431 431 431 431 431 431 431
492 488 483 476 472 466 459 451 447 448 446 447 452 482 516 569 605 616 620 619 620 619 613 603 591 572 552 547 544 542 542 546 548 555 561 560 564 570 572 588 629 680 733 903 1002 1056 1090 1132 1191 1242 1293 1340 1405 1458 1516 1572 1596 1620 1666 1694 1692 1680 1658 1632 1642 1650 1636 1622 1601 1561 1533 1486 1458 1433 1412 1398 1409 1405 1371 1335 1285 1204 1122 1025 947 879 827 792 752 708 670 634 598 545 497 487 485 491 500 503 511 524 548 583 627 667 700 740 794 871 1039 1114 1118 1133 1148 1095 1021 986 1034 1103 1179 1230 1248 1272 1295 1318 1331 1354 1400 1474 1611 1680 1709 1751 1769 1754 1729 1695 1637 1608 1595 1550 1481 1411 1357 1312 1274 1256 1281 1317 1354 1375 1404 1423 1455 1485 1511 1534 1564 1602 1632 1646 1620 1566 1525 1490 1463 1457 1471 1472 1465 1428 1391 1364 1344 1317 1293 1272 1259 1240 1214 1177 1140 1103 1071 1065 1063 1080 1119 1178 1218 1247 1266 1293 1324 1359 1386 1406 1423 1443 1470 1485 1506 1525 1546 1568 1588 1622 1659 1698 1737 1799 1863 1854 1770 1694 1643 1611 1599 1603 1593 1594 1593 1578 1552 1521 1291 1240 1164 1058 871 742 674 619 566 520 491 463 440 432 431 431 431 431 431 431 431 431 431 431
494 489 485 478 471 464 457 455 452 451 449 451 461 493 533 581 608 617 614 615 615 615 607 597 581 571 553 549 548 550 553 553 555 562 570 571 578 594 601 617 658 716 791 989 1077 1113 1151 1212 1286 1347 1392 1450 1530 1582 1623 1661 1683 1699 1726 1757 1761 1748 1711 1693 1683 1656 1627 1571 1518 1479 1451 1418 1392 1360 1340 1329 1325 1318 1307 1279 1255 1195 1104 1005 921 854 807 773 739 699 665 636 601 548 502 489 488 494 505 506 515 529 551 577 605 641 676 706 746 812 975 1020 1027 1043 1063 1017 962 968 1024 1077 1132 1168 1182 1211 1249 1283 1307 1340 1402 1476 1658 1715 1740 1765 1766 1749 1730 1701 1662 1634 1616 1574 1487 1419 1377 1334 1296 1275 1269 1279 1310 1340 1374 1392 1428 1454 1493 1521 1545 1566 1591 1604 1579 1538 1504 1491 1505 1537 1566 1587 1598 1538 1466 1417 1383 1347 1311 1277 1254 1232 1201 1170 1134 1103 1086 1081 1089 1119 1153 1203 1240 1272 1292 1325 1361 1395 1420 1441 1458 1463 1475 1489 1500 1524 1554 1580 1617 1657 1706 1755 1814 1869 1903 1845 1765 1704 1656 1634 1638 1644 1630 1623 1610 1586 1552 1496 1271 1217 1133 988 830 732 670 625 580 535 504 480 454 439 431 431 431 431 431 431 431 431 431 431
495 490 485 479 472 464 458 460 459 452 450 452 465 501 547 588 608 613 608 609 607 604 598 590 574 565 556 553 560 566 570 570 568 571 578 581 588 609 626 652 691 745 847 1039 1133 1180 1230 1284 1349 1399 1460 1538 1591 1657 1714 1739 1761 1781 1802 1809 1787 1734 1694 1670 1634 1592 1563 1494 1444 1408 1381 1359 1327 1295 1281 1264 1253 1259 1251 1215 1207 1168 1087 993 905 838 790 762 726 688 655 631 595 545 503 494 490 493 504 510 521 534 551 573 595 624 646 668 701 755 865 903 931 944 957 931 931 962 999 1039 1073 1118 1154 1192 1241 1282 1303 1341 1416 1502 1650 1724 1750 1765 1761 1747 1738 1724 1687 1657 1632 1593 1508 1446 1406 1369 1329 1313 1301 1281 1288 1317 1347 1382 1415 1435 1471 1500 1520 1532 1551 1572 1548 1516 1500 1520 1560 1595 1628 1655 1685 1660 1569 1485 1450 1411 1357 1317 1279 1255 1217 1190 1151 1117 1108 1101 1119 1154 1194 1233 1265 1300 1327 1360 1386 1406 1423 1436 1451 1456 1468 1483 1506 1537 1572 1611 1662 1732 1794 1843 1887 1919 1911 1841 1785 1723 1685 1682 1689 1696 1682 1671 1638 1613 1544 1383 1262 1196 1074 953 810 732 682 647 611 551 525 517 491 474 431 431 431 431 431 431 431 431 431 431
496 492 489 483 477 469 461 461 459 451 451 455 476 516 557 585 599 604 600 605 599 597 596 587 577 567 570 564 576 581 582 586 583 586 590 594 597 604 626 660 705 777 894 1117 1165 1195 1227 1273 1325 1381 1458 1532 1590 1676 1754 1798 1841 1850 1826 1763 1712 1658 1610 1593 1547 1514 1488 1436 1390 1352 1325 1305 1283 1251 1224 1201 1191 1194 1188 1157 1148 1117 1053 957 877 819 773 741 704 670 642 617 585 544 510 501 495 493 500 513 524 535 547 577 608 643 663 679 682 710 780 829 850 859 872 877 910 943 979 1014 1055 1110 1155 1203 1245 1271 1296 1341 1422 1512 1617 1718 1738 1749 1752 1747 1735 1730 1712 1695 1669 1636 1560 1489 1445 1405 1369 1354 1333 1307 1290 1302 1329 1357 1383 1408 1439 1470 1493 1506 1526 1545 1533 1513 1528 1559 1594 1627 1650 1675 1717 1712 1632 1538 1510 1496 1436 1376 1323 1293 1257 1229 1178 1151 1145 1143 1157 1192 1230 1267 1302 1327 1347 1369 1384 1400 1416 1424 1437 1450 1466 1493 1540 1584 1632 1673 1732 1792 1838 1892 1941 2000 1999 1976 1952 1910 1870 1851 1839 1816 1771 1712 1659 1605 1527 1360 1276 1165 1038 934 802 750 708 669 627 570 561 566 551 526 473 431 431 431 431 431 431 431 431 431
497 491 488 481 475 469 465 463 461 457 454 464 495 535 572 585 593 597 598 602 600 598 594 587 578 571 578 577 585 582 584 592 592 602 609 612 608 604 623 663 705 778 918 1083 1134 1156 1175 1249 1351 1408 1465 1531 1597 1676 1760 1800 1801 1810 1737 1683 1634 1580 1535 1509 1477 1445 1440 1409 1366 1304 1274 1258 1235 1203 1169 1141 1132 1135 1123 1102 1085 1058 1014 914 847 792 752 716 686 658 624 601 577 544 519 510 502 496 496 508 517 525 539 573 608 649 687 724 740 744 762 805 808 813 833 853 894 950 988 1028 1083 1127 1157 1203 1232 1251 1284 1338 1413 1500 1589 1658 1713 1719 1726 1729 1711 1704 1701 1690 1673 1654 1613 1547 1479 1440 1404 1385 1362 1335 1315 1316 1327 1344 1368 1399 1431 1466 1485 1497 1513 1528 1539 1545 1568 1587 1613 1642 1657 1682 1709 1702 1619 1550 1513 1506 1473 1422 1368 1335 1306 1260 1220 1212 1204 1204 1206 1232 1271 1297 1329 1343 1364 1390 1396 1408 1419 1426 1447 1468 1503 1538 1587 1643 1682 1710 1746 1796 1859 1950 2006 2053 2040 2015 2019 1994 1957 1947 1939 1906 1846 1729 1664 1576 1484 1340 1275 1128 1027 917 822 769 723 678 640 604 606 617 610 583 539 462 431 431 431 431 431 431 431 431
497 491 487 483 479 473 468 465 466 463 458 481 518 558 582 587 595 599 600 600 600 600 594 585 579 577 581 579 583 584 589 596 603 614 620 628 629 618 633 672 724 851 983 1038 1093 1147 1203 1291 1376 1411 1457 1513 1574 1645 1706 1758 1764 1727 1655 1605 1566 1525 1480 1450 1419 1390 1381 1381 1355 1280 1232 1212 1179 1146 1112 1091 1078 1077 1068 1052 1030 1000 964 883 816 769 739 702 671 648 618 593 568 543 526 517 509 503 498 499 506 511 526 563 608 661 706 752 785 811 811 825 844 823 826 852 903 953 989 1031 1084 1123 1160 1196 1226 1241 1281 1327 1403 1481 1535 1573 1600 1630 1648 1649 1645 1642 1654 1640 1639 1633 1626 1593 1517 1467 1436 1412 1391 1372 1366 1382 1387 1401 1418 1446 1477 1503 1514 1519 1520 1537 1560 1583 1604 1616 1641 1667 1681 1696 1711 1684 1601 1554 1523 1509 1480 1444 1405 1379 1334 1289 1269 1271 1264 1256 1265 1284 1312 1331 1353 1372 1400 1426 1431 1446 1456 1472 1497 1530 1559 1594 1632 1672 1694 1708 1781 1865 1953 1996 2007 1987 1971 1957 1965 1977 1967 1967 1968 1930 1869 1713 1642 1522 1420 1327 1240 1122 1026 918 840 792 749 700 683 658 658 664 650 634 606 569 521 431 431 431 431 431 431 431
496 492 486 486 481 475 473 469 466 464 472 499 537 571 580 585 596 604 601 598 598 598 597 587 575 575 578 583 587 590 595 601 611 620 625 640 647 640 656 684 742 832 973 1059 1125 1179 1236 1282 1333 1386 1451 1517 1574 1616 1665 1722 1697 1686 1638 1583 1529 1485 1440 1407 1365 1333 1318 1330 1322 1251 1199 1166 1126 1093 1065 1047 1032 1027 1018 1002 988 952 913 853 789 751 725 688 659 641 615 589 560 545 531 523 515 510 502 496 497 501 517 557 612 703 743 779 818 852 851 858 876 879 874 870 903 944 977 1029 1069 1101 1154 1184 1214 1236 1274 1326 1379 1422 1466 1482 1497 1542 1575 1576 1573 1573 1571 1555 1581 1597 1606 1603 1557 1495 1466 1442 1432 1426 1431 1458 1471 1485 1492 1507 1523 1531 1537 1548 1557 1575 1601 1624 1649 1662 1678 1699 1708 1722 1730 1681 1615 1580 1561 1544 1516 1483 1450 1415 1370 1322 1306 1312 1319 1328 1342 1345 1347 1371 1404 1432 1454 1469 1479 1487 1501 1518 1539 1559 1581 1616 1682 1742 1784 1770 1900 1966 1970 1968 1945 1917 1901 1896 1917 1921 1927 1929 1919 1876 1813 1700 1586 1460 1378 1297 1203 1114 1030 939 871 826 774 749 743 723 719 709 701 699 683 659 636 579 431 431 431 431 431 431
496 494 485 478 475 474 475 470 467 470 490 512 550 569 577 584 600 600 597 596 596 594 592 588 579 574 577 588 593 599 604 610 618 623 631 641 657 662 675 703 753 833 955 1050 1108 1163 1215 1262 1333 1402 1472 1516 1541 1566 1626 1682 1689 1720 1669 1604 1537 1485 1450 1401 1346 1290 1260 1271 1257 1207 1161 1125 1089 1061 1031 1013 998 986 974 957 943 910 860 811 762 730 707 671 648 631 609 583 561 550 539 531 523 515 505 496 495 496 518 571 615 711 790 824 869 894 912 903 902 911 906 895 900 937 972 1016 1051 1080 1131 1164 1196 1226 1257 1302 1342 1375 1406 1432 1460 1494 1506 1504 1500 1507 1503 1508 1518 1540 1563 1590 1584 1535 1492 1477 1482 1486 1493 1514 1530 1538 1540 1542 1550 1554 1571 1593 1603 1623 1655 1678 1700 1713 1722 1730 1743 1759 1759 1701 1654 1628 1612 1595 1563 1535 1503 1496 1475 1409 1408 1435 1445 1426 1451 1419 1401 1425 1463 1512 1521 1519 1540 1538 1551 1558 1558 1596 1636 1694 1792 1868 1910 1903 1915 1918 1916 1914 1895 1863 1834 1829 1843 1841 1851 1852 1846 1819 1761 1653 1522 1424 1350 1269 1164 1076 1010 936 879 852 805 797 785 774 775 760 762 787 783 771 735 660 431 431 431 431 431 431
492 491 488 479 473 473 472 469 468 478 504 526 551 558 568 584 595 594 593 595 594 591 593 588 580 581 588 597 601 606 619 629 628 634 642 654 666 680 696 715 752 826 934 1024 1101 1165 1250 1313 1370 1408 1423 1448 1470 1509 1566 1641 1706 1731 1683 1620 1545 1486 1457 1409 1342 1272 1218 1221 1198 1161 1122 1094 1060 1039 1014 995 979 965 949 928 899 861 813 770 739 715 689 658 639 618 600 579 566 555 544 535 525 514 505 496 494 496 515 565 618 695 808 862 902 944 965 950 946 946 932 929 912 924 965 1007 1046 1081 1113 1141 1171 1197 1232 1268 1301 1337 1369 1395 1419 1452 1464 1460 1452 1455 1455 1461 1464 1471 1505 1541 1574 1566 1528 1528 1538 1537 1547 1564 1576 1580 1580 1588 1596 1604 1618 1625 1636 1667 1708 1749 1764 1767 1774 1772 1780 1786 1790 1742 1708 1688 1667 1657 1638 1601 1590 1580 1517 1489 1496 1511 1514 1527 1557 1573 1529 1567 1637 1724 1708 1737 1741 1733 1677 1685 1658 1709 1779 1842 1851 1872 1873 1854 1857 1864 1860 1871 1854 1810 1762 1735 1729 1727 1727 1730 1737 1754 1707 1594 1479 1399 1329 1239 1131 1048 986 931 901 891 868 839 820 817 814 833 886 929 967 951 823 752 648 449 438 431 431 431
488 485 481 474 472 471 470 467 473 503 544 547 545 553 581 598 599 597 596 594 589 592 593 581 576 583 599 608 615 622 634 644 645 648 660 670 682 699 710 723 748 822 935 1026 1119 1186 1255 1316 1351 1345 1351 1384 1429 1477 1527 1608 1690 1686 1647 1597 1532 1470 1425 1378 1322 1259 1197 1175 1154 1123 1097 1070 1030 1009 991 982 973 961 932 892 852 811 770 737 716 697 670 647 634 622 600 581 568 555 545 531 522 512 506 498 493 494 513 554 616 694 807 871 919 953 971 980 983 980 971 969 943 931 962 1004 1046 1088 1104 1123 1143 1165 1198 1231 1259 1299 1331 1362 1381 1401 1411 1412 1404 1404 1401 1408 1412 1419 1460 1488 1529 1558 1565 1583 1594 1602 1615 1621 1614 1609 1619 1630 1633 1645 1651 1657 1675 1702 1751 1806 1828 1817 1818 1820 1821 1828 1833 1796 1771 1757 1742 1736 1721 1679 1666 1623 1578 1569 1558 1568 1579 1592 1607 1628 1639 1670 1709 1759 1817 1862 1853 1844 1796 1798 1812 1812 1818 1830 1839 1832 1813 1799 1792 1787 1776 1776 1753 1710 1663 1625 1610 1601 1600 1608 1617 1628 1607 1564 1475 1392 1320 1206 1128 1041 973 959 951 955 948 940 905 909 900 974 1024 1035 1026 982 881 780 726 706 537 434 431 431
485 484 477 472 468 467 467 466 485 538 559 551 557 569 592 599 599 598 596 592 592 595 591 577 580 583 600 610 616 627 638 645 655 665 674 685 696 710 723 734 754 823 929 1018 1107 1165 1209 1245 1266 1258 1294 1348 1393 1426 1487 1565 1654 1644 1602 1555 1507 1451 1387 1331 1286 1245 1203 1162 1140 1117 1094 1065 1022 991 962 959 954 939 894 840 809 778 752 742 710 694 679 661 655 638 612 596 573 555 545 528 519 513 506 498 494 497 524 565 622 685 797 876 922 952 976 994 1009 1011 1017 1015 982 967 961 976 1001 1048 1077 1092 1111 1140 1172 1200 1222 1258 1286 1321 1339 1351 1353 1355 1362 1363 1364 1373 1382 1394 1422 1447 1476 1518 1554 1590 1631 1665 1679 1678 1663 1645 1650 1656 1658 1669 1681 1698 1711 1727 1773 1836 1886 1876 1871 1866 1861 1872 1885 1865 1841 1824 1838 1840 1850 1733 1702 1671 1640 1620 1613 1634 1634 1640 1650 1662 1675 1699 1730 1776 1835 1868 1857 1837 1804 1783 1772 1765 1773 1791 1806 1789 1773 1758 1710 1685 1666 1647 1621 1585 1542 1509 1489 1477 1478 1490 1500 1507 1505 1512 1452 1374 1288 1192 1117 1044 1011 1018 1041 1073 1098 1048 1038 1056 1082 1108 1100 1076 1051 991 886 812 755 716 643 484 432 431
483 480 475 472 466 464 466 468 509 557 561 554 561 580 596 597 598 600 600 601 600 594 591 581 579 586 602 610 617 627 637 651 660 673 683 691 708 721 736 751 769 832 923 1006 1069 1110 1132 1158 1183 1211 1260 1305 1335 1373 1449 1526 1614 1603 1560 1511 1464 1417 1359 1306 1262 1230 1203 1176 1148 1121 1093 1072 1035 990 954 933 911 897 852 830 818 803 783 750 725 726 712 682 667 650 629 613 589 565 542 529 518 513 505 497 496 501 528 575 631 694 804 883 922 955 990 1014 1037 1054 1062 1055 1027 1020 1013 999 991 1007 1033 1051 1078 1111 1146 1172 1191 1218 1247 1283 1306 1308 1302 1317 1342 1358 1379 1400 1407 1409 1412 1418 1435 1469 1512 1551 1597 1652 1696 1717 1716 1689 1674 1671 1686 1703 1724 1733 1733 1754 1784 1836 1903 1944 1939 1926 1919 1925 1942 1941 1915 1905 1919 1931 1954 1862 1734 1707 1681 1662 1661 1663 1666 1670 1684 1707 1729 1756 1780 1812 1855 1864 1856 1823 1785 1752 1736 1726 1732 1751 1763 1735 1692 1661 1609 1575 1552 1530 1503 1487 1433 1397 1376 1365 1367 1381 1390 1399 1409 1431 1399 1334 1268 1203 1137 1086 1070 1099 1145 1190 1207 1209 1241 1183 1167 1159 1139 1095 1050 981 895 833 773 727 655 581 458 434
479 477 474 470 465 462 463 467 525 554 552 552 565 590 600 598 597 600 605 607 601 595 591 586 581 588 608 614 622 632 645 658 669 681 695 696 714 735 752 767 788 829 903 975 1017 1034 1053 1086 1124 1178 1227 1248 1282 1342 1421 1498 1574 1557 1523 1474 1416 1376 1329 1287 1252 1225 1203 1181 1147 1120 1095 1077 1050 1012 976 934 918 905 872 882 873 841 793 763 754 747 730 710 691 667 648 624 607 579 546 528 519 512 505 496 495 496 517 566 634 689 836 894 927 965 1005 1037 1066 1085 1097 1092 1068 1066 1068 1058 1047 1031 1033 1047 1061 1080 1114 1142 1162 1184 1204 1241 1269 1270 1270 1299 1338 1372 1410 1443 1451 1443 1427 1426 1449 1471 1506 1547 1574 1605 1646 1687 1723 1733 1701 1683 1699 1726 1742 1745 1755 1774 1798 1842 1899 1968 2005 1985 1979 1982 2006 2019 1993 1981 2001 2002 2014 1954 1767 1745 1722 1704 1698 1697 1701 1712 1734 1764 1787 1812 1833 1848 1860 1831 1818 1795 1761 1727 1705 1686 1683 1701 1670 1629 1580 1539 1499 1466 1442 1421 1395 1369 1333 1299 1279 1271 1273 1280 1287 1303 1321 1326 1335 1299 1242 1197 1159 1134 1139 1174 1227 1264 1277 1289 1306 1285 1225 1188 1145 1082 1026 960 895 852 809 747 678 594 508 442
474 472 470 466 463 461 468 498 538 553 549 549 570 591 597 597 595 604 612 607 600 595 593 586 581 592 610 618 625 637 654 665 677 688 702 708 719 741 756 777 796 822 867 915 944 973 1002 1053 1091 1133 1159 1190 1244 1314 1389 1470 1546 1537 1487 1433 1387 1345 1308 1279 1252 1230 1207 1188 1159 1132 1109 1086 1063 1036 985 968 960 925 905 917 923 866 811 784 779 769 748 732 716 694 667 644 621 584 549 528 515 507 500 498 496 497 511 557 626 679 868 917 935 972 1015 1043 1074 1105 1124 1120 1100 1102 1108 1108 1104 1085 1074 1085 1083 1085 1102 1129 1145 1174 1195 1209 1226 1235 1249 1289 1354 1396 1427 1453 1462 1456 1455 1464 1484 1503 1523 1564 1597 1613 1629 1660 1688 1735 1734 1711 1728 1746 1754 1761 1771 1784 1811 1860 1915 1978 2047 2063 2056 2048 2068 2090 2073 2044 2063 2071 2074 2014 1828 1797 1761 1740 1726 1732 1737 1744 1767 1805 1843 1869 1882 1863 1828 1774 1751 1737 1717 1683 1654 1640 1629 1612 1525 1471 1435 1410 1399 1372 1346 1324 1299 1256 1244 1208 1197 1197 1197 1196 1201 1225 1248 1274 1265 1247 1223 1223 1196 1194 1208 1250 1293 1322 1334 1330 1316 1277 1223 1172 1119 1063 1001 937 898 874 838 764 700 604 517 445
472 470 467 463 461 466 501 533 559 558 550 551 575 591 593 596 603 612 612 603 596 593 588 582 585 602 619 624 633 646 659 672 683 697 707 717 729 744 760 784 808 836 859 883 906 933 976 1019 1058 1085 1113 1164 1223 1284 1356 1449 1515 1504 1449 1398 1357 1319 1296 1272 1250 1237 1218 1201 1176 1142 1114 1095 1078 1052 1021 997 961 928 940 959 935 874 826 821 818 808 777 753 735 709 682 658 631 594 555 532 515 503 499 499 497 497 506 551 615 654 869 930 941 972 1009 1041 1072 1110 1140 1147 1137 1141 1145 1158 1163 1144 1134 1137 1139 1130 1134 1150 1165 1190 1214 1223 1223 1228 1244 1294 1361 1409 1431 1442 1463 1471 1491 1512 1523 1534 1552 1572 1598 1626 1648 1681 1708 1739 1761 1766 1776 1775 1773 1779 1787 1802 1830 1880 1940 2000 2081 2144 2144 2125 2146 2168 2146 2095 2106 2128 2122 2030 1880 1840 1790 1768 1756 1768 1778 1791 1823 1868 1909 1932 1913 1838 1768 1716 1691 1680 1659 1631 1596 1585 1563 1536 1491 1432 1379 1345 1316 1305 1258 1241 1214 1206 1186 1154 1136 1145 1144 1130 1122 1162 1188 1203 1211 1238 1270 1290 1277 1280 1320 1336 1347 1353 1338 1302 1260 1217 1175 1124 1075 1023 967 917 888 864 821 716 643 585 518 458
469 468 465 461 461 477 531 552 560 556 551 555 574 590 594 598 607 606 603 596 589 588 584 585 595 610 625 632 644 656 667 679 688 701 709 722 735 749 763 787 813 841 866 889 912 945 976 992 1019 1057 1102 1155 1204 1256 1319 1425 1472 1453 1417 1371 1329 1298 1280 1261 1245 1236 1219 1207 1191 1156 1128 1105 1088 1071 1040 1000 975 971 991 989 937 889 862 852 852 849 808 771 749 722 696 673 648 610 566 535 515 503 500 500 498 498 503 541 604 676 844 921 939 966 1001 1040 1074 1114 1144 1162 1177 1187 1189 1210 1221 1210 1206 1195 1191 1188 1191 1190 1188 1204 1232 1242 1240 1237 1248 1293 1363 1410 1436 1452 1468 1482 1511 1534 1553 1563 1576 1585 1602 1635 1668 1695 1726 1761 1805 1843 1843 1817 1799 1802 1814 1823 1844 1900 1969 2029 2103 2159 2160 2165 2180 2192 2159 2108 2110 2134 2118 2024 1909 1871 1830 1807 1806 1819 1831 1853 1893 1939 1963 1952 1905 1806 1732 1663 1633 1618 1580 1551 1517 1503 1492 1473 1427 1367 1314 1282 1248 1234 1211 1183 1152 1131 1123 1091 1076 1085 1090 1084 1083 1107 1122 1153 1206 1243 1294 1337 1326 1338 1358 1346 1327 1311 1277 1234 1187 1142 1107 1059 1016 972 927 892 810 747 688 607 560 565 516 465
465 464 462 460 461 488 545 562 556 552 552 560 575 586 592 601 599 596 593 589 582 584 587 597 609 615 627 638 648 660 674 682 689 698 710 724 738 753 769 788 817 843 866 892 918 953 981 997 1019 1051 1086 1124 1186 1241 1293 1380 1423 1427 1412 1365 1330 1294 1266 1250 1237 1229 1218 1211 1206 1174 1142 1119 1101 1084 1058 1042 1023 1023 1027 996 946 928 910 888 887 881 841 801 772 744 716 698 675 630 586 547 513 502 501 500 499 500 506 543 600 709 816 903 935 961 997 1037 1069 1101 1136 1170 1221 1244 1241 1251 1270 1272 1264 1240 1224 1237 1255 1255 1242 1238 1249 1251 1247 1249 1264 1305 1363 1408 1449 1474 1487 1501 1531 1556 1577 1591 1590 1597 1616 1650 1679 1706 1737 1781 1838 1903 1909 1870 1838 1827 1833 1849 1866 1917 1988 2063 2127 2150 2128 2124 2135 2135 2111 2077 2078 2083 2063 2021 1962 1925 1880 1866 1877 1885 1896 1918 1959 1965 1938 1904 1874 1796 1724 1642 1581 1547 1512 1475 1430 1410 1356 1330 1325 1290 1260 1227 1195 1174 1155 1126 1085 1059 1056 1020 1016 1029 1031 1032 1026 1033 1061 1110 1175 1194 1236 1291 1269 1277 1295 1265 1246 1253 1211 1156 1101 1058 1020 983 952 920 890 787 694 618 569 560 559 564 511 459
461 461 460 459 460 505 557 561 553 551 552 557 575 580 588 597 591 588 585 581 579 582 593 603 609 616 630 640 649 657 668 677 689 699 712 732 748 766 795 810 818 839 874 904 931 954 978 1000 1019 1046 1086 1114 1169 1227 1272 1344 1373 1401 1408 1384 1357 1315 1282 1255 1248 1237 1220 1214 1206 1183 1163 1137 1112 1103 1095 1084 1067 1061 1049 1012 979 975 961 943 932 921 884 851 829 813 766 749 709 661 608 564 513 502 500 501 500 504 514 552 603 699 794 868 906 933 971 1003 1037 1079 1120 1182 1250 1286 1299 1301 1307 1322 1320 1297 1273 1288 1315 1320 1296 1283 1283 1286 1272 1265 1281 1321 1375 1426 1480 1503 1517 1533 1556 1581 1608 1620 1617 1622 1640 1668 1696 1719 1742 1784 1852 1934 1966 1931 1893 1868 1858 1870 1888 1926 2001 2084 2142 2148 2117 2096 2093 2072 2047 2032 2023 2013 2007 2004 1994 1984 1952 1944 1951 1954 1963 1971 1966 1921 1871 1826 1805 1775 1705 1638 1548 1488 1447 1395 1356 1322 1299 1282 1256 1217 1190 1173 1148 1121 1101 1072 1037 1004 986 968 972 982 979 981 973 972 998 1060 1115 1120 1148 1170 1174 1176 1190 1153 1134 1140 1108 1054 1001 967 936 918 902 824 769 677 616 576 568 593 589 554 496 448
459 459 459 460 465 521 551 551 548 552 555 560 576 574 582 587 585 585 584 576 578 582 592 596 608 619 626 635 643 652 665 678 702 720 744 767 784 807 829 843 821 830 861 899 949 990 1007 1025 1044 1076 1100 1125 1163 1216 1263 1303 1341 1380 1400 1395 1384 1352 1318 1298 1280 1256 1228 1213 1201 1186 1170 1148 1120 1138 1134 1116 1096 1089 1082 1054 1022 1029 1021 1002 987 973 937 917 923 925 889 861 754 688 628 573 517 502 499 502 502 512 526 555 610 681 762 804 875 929 957 965 1000 1060 1111 1190 1250 1300 1340 1361 1365 1367 1378 1371 1347 1343 1352 1358 1347 1326 1322 1328 1317 1294 1306 1348 1403 1457 1503 1522 1543 1561 1579 1611 1637 1644 1649 1655 1667 1688 1714 1738 1757 1789 1846 1927 1988 1991 1956 1928 1903 1897 1899 1933 2007 2093 2134 2155 2117 2082 2048 2013 1992 1981 1975 1966 1959 1974 1988 2021 1999 2003 2010 1989 1971 1944 1909 1859 1805 1765 1738 1732 1689 1612 1532 1466 1404 1343 1297 1258 1236 1214 1187 1156 1131 1114 1095 1061 1037 1017 978 949 934 930 934 935 932 935 931 924 951 1004 1031 1042 1053 1066 1068 1064 1052 1032 1012 997 975 937 914 886 868 869 805 733 677 628 605 607 625 629 583 522 468 432
458 459 459 466 494 531 543 544 547 551 560 568 574 573 575 580 581 580 581 572 577 581 586 592 603 610 621 631 642 654 672 695 719 734 761 784 811 838 861 875 857 842 866 897 952 1018 1046 1060 1079 1102 1126 1148 1170 1209 1245 1278 1321 1367 1400 1408 1395 1367 1342 1321 1296 1259 1234 1213 1197 1186 1177 1163 1141 1166 1172 1154 1137 1127 1126 1096 1072 1089 1082 1061 1045 1029 1000 986 1003 991 971 950 845 671 637 577 521 503 501 502 507 520 536 566 610 664 726 779 876 951 982 995 1009 1066 1124 1205 1275 1313 1356 1404 1423 1426 1420 1418 1397 1374 1380 1393 1397 1374 1365 1369 1366 1338 1344 1380 1434 1488 1527 1544 1564 1582 1601 1629 1656 1666 1673 1679 1692 1710 1731 1754 1775 1805 1845 1897 1962 2017 2026 2003 1964 1952 1921 1934 1999 2091 2130 2148 2092 2044 2005 1982 1966 1953 1936 1929 1928 1938 1960 2001 2021 1997 1967 1932 1903 1875 1840 1794 1736 1701 1672 1677 1652 1564 1500 1441 1384 1322 1260 1218 1181 1159 1128 1096 1076 1049 1032 1010 997 975 942 908 897 896 898 890 890 893 890 884 905 928 939 953 964 971 969 961 944 925 903 886 857 855 832 815 810 793 734 681 659 642 650 671 688 653 564 492 431 431
459 458 465 483 531 541 542 544 547 555 562 574 574 573 573 582 576 571 570 566 571 574 585 591 600 607 619 631 648 665 686 709 723 742 772 803 832 857 880 895 890 874 875 901 951 1011 1050 1085 1111 1125 1141 1166 1182 1209 1239 1269 1311 1355 1395 1407 1384 1354 1326 1310 1290 1255 1238 1216 1198 1189 1187 1180 1159 1183 1196 1192 1187 1180 1179 1139 1132 1150 1141 1116 1106 1079 1056 1049 1045 1013 996 978 945 777 642 585 523 503 502 505 511 524 547 572 600 643 698 779 896 970 1007 1043 1066 1109 1161 1227 1302 1353 1374 1415 1455 1491 1495 1488 1460 1423 1410 1427 1448 1424 1413 1419 1411 1381 1380 1413 1462 1509 1548 1561 1576 1597 1619 1640 1666 1680 1692 1703 1713 1738 1753 1769 1792 1824 1854 1885 1926 1985 2037 2054 2044 2015 1951 1941 1988 2068 2121 2116 2057 2027 2000 1971 1960 1939 1899 1888 1905 1908 1905 1936 1962 1926 1898 1858 1830 1799 1767 1733 1681 1636 1600 1613 1606 1523 1453 1385 1340 1294 1235 1187 1143 1115 1081 1045 1022 994 971 963 961 943 905 881 871 872 868 860 862 858 850 849 854 861 877 878 883 887 883 873 854 836 816 795 802 789 765 751 742 752 722 688 689 697 718 739 751 699 583 492 432 431
461 463 488 510 536 547 546 551 577 583 575 575 575 572 573 580 575 568 567 565 568 574 582 590 598 606 613 631 655 673 694 718 738 764 792 818 848 874 900 919 921 912 904 919 945 999 1047 1090 1119 1150 1172 1189 1202 1223 1245 1273 1308 1348 1387 1395 1366 1334 1311 1298 1277 1252 1236 1215 1201 1194 1195 1188 1176 1194 1205 1210 1215 1219 1224 1191 1198 1209 1192 1176 1170 1130 1103 1090 1061 1027 1011 985 955 854 654 597 526 504 503 506 515 530 551 572 602 656 737 832 928 992 1049 1098 1135 1167 1216 1273 1327 1392 1426 1446 1474 1511 1536 1548 1528 1467 1445 1458 1481 1471 1459 1468 1452 1426 1422 1437 1481 1525 1561 1581 1601 1622 1640 1653 1681 1697 1709 1724 1741 1802 1819 1810 1821 1838 1855 1880 1899 1934 1982 2028 2069 2057 1990 1971 2000 2065 2103 2081 2050 2033 2003 1970 1956 1916 1868 1853 1871 1861 1842 1865 1882 1856 1825 1790 1751 1718 1689 1657 1618 1576 1528 1524 1516 1449 1389 1329 1284 1249 1200 1150 1106 1082 1048 1010 980 953 934 926 923 911 881 875 874 872 878 883 873 869 857 837 822 818 821 824 821 821 818 809 804 790 775 756 752 736 726 739 733 761 768 740 748 768 796 818 824 768 637 514 446 431
469 496 521 539 547 555 557 581 590 592 592 587 578 572 573 573 565 567 562 563 568 574 578 586 593 602 611 634 658 684 710 733 759 793 814 841 870 901 927 943 953 952 943 942 945 986 1045 1084 1121 1171 1204 1219 1227 1240 1258 1287 1317 1347 1384 1384 1348 1317 1307 1285 1263 1248 1233 1218 1207 1201 1200 1192 1198 1207 1214 1218 1225 1234 1252 1246 1254 1270 1273 1262 1238 1188 1143 1119 1074 1051 1014 993 939 826 693 616 537 504 504 507 516 531 548 567 603 667 760 890 988 1042 1112 1168 1210 1244 1275 1318 1365 1420 1470 1484 1493 1514 1536 1564 1553 1494 1480 1491 1505 1510 1502 1512 1495 1467 1465 1471 1500 1542 1575 1600 1629 1646 1669 1683 1714 1755 1758 1756 1778 1840 1889 1889 1867 1862 1852 1861 1875 1897 1924 1964 2018 2063 2052 2023 2056 2092 2100 2075 2056 2032 2004 1965 1950 1905 1844 1830 1830 1809 1792 1802 1819 1789 1755 1717 1674 1636 1605 1567 1544 1500 1442 1413 1409 1370 1323 1274 1234 1202 1152 1103 1062 1040 1015 985 953 929 913 903 902 913 896 908 913 918 943 969 958 936 915 879 842 826 807 790 786 786 779 773 766 759 755 751 752 747 759 772 794 806 816 819 829 854 884 899 886 815 678 534 448 431
522 552 554 562 567 566 587 587 580 588 590 588 578 571 568 564 563 563 559 561 566 572 577 584 590 602 621 649 675 704 734 762 781 808 834 865 899 933 960 972 975 975 976 967 967 991 1035 1078 1124 1182 1236 1266 1271 1270 1276 1307 1335 1359 1389 1382 1346 1317 1303 1273 1256 1245 1237 1226 1215 1207 1200 1204 1212 1216 1223 1226 1233 1249 1264 1272 1283 1304 1347 1356 1305 1240 1184 1160 1124 1077 1016 980 900 821 720 631 552 512 505 508 518 527 541 562 607 678 805 903 991 1059 1133 1208 1261 1292 1317 1352 1406 1451 1500 1515 1526 1534 1546 1575 1570 1527 1515 1527 1534 1542 1544 1553 1542 1513 1504 1517 1542 1575 1605 1630 1668 1685 1707 1729 1759 1828 1849 1834 1824 1852 1920 1960 1932 1908 1890 1871 1875 1908 1937 1974 2013 2061 2093 2074 2139 2134 2102 2067 2038 2017 1997 1978 1971 1900 1845 1818 1794 1751 1735 1750 1757 1725 1685 1638 1596 1558 1529 1494 1449 1421 1375 1345 1328 1298 1254 1217 1185 1149 1106 1061 1016 998 977 956 936 922 919 913 931 948 938 957 951 955 1050 1081 1082 1051 995 952 906 880 848 816 786 771 767 766 774 771 771 777 777 802 825 836 828 860 889 907 924 947 967 958 910 813 675 532 443 431
556 564 561 561 564 576 589 576 576 579 580 575 572 569 564 560 559 560 557 560 565 568 573 582 588 609 638 666 695 728 765 786 807 828 856 889 922 965 999 1010 1009 1003 1007 1006 1011 1029 1045 1074 1119 1180 1246 1296 1314 1304 1309 1325 1350 1377 1391 1376 1349 1328 1301 1275 1260 1248 1239 1227 1220 1211 1210 1217 1221 1225 1230 1237 1257 1265 1270 1278 1300 1332 1370 1400 1360 1306 1233 1192 1141 1078 1012 954 872 801 713 624 568 522 508 510 516 525 536 560 620 700 819 929 994 1053 1127 1208 1281 1312 1353 1397 1439 1478 1532 1552 1555 1563 1578 1606 1602 1564 1552 1565 1569 1575 1577 1587 1583 1560 1551 1563 1592 1620 1642 1663 1703 1745 1751 1770 1792 1845 1908 1920 1892 1888 1939 1994 1979 1954 1942 1912 1911 1947 1994 2038 2068 2092 2141 2171 2192 2156 2107 2081 2056 2049 2025 1984 1963 1890 1839 1794 1754 1706 1685 1685 1683 1644 1600 1553 1519 1496 1466 1424 1373 1344 1308 1275 1253 1227 1190 1158 1128 1099 1063 1019 980 965 959 962 967 974 987 986 982 993 990 995 1077 1121 1181 1218 1224 1183 1105 1028 977 938 899 853 804 783 788 815 826 837 846 848 852 866 888 901 915 944 977 1002 1019 1028 1016 970 888 772 636 507 428 431
548 549 555 559 557 569 574 572 576 571 570 566 563 563 561 557 558 559 559 562 565 566 570 577 593 620 649 677 714 755 786 810 828 848 878 906 942 982 1012 1033 1048 1054 1053 1052 1051 1073 1083 1089 1123 1174 1239 1297 1336 1343 1349 1348 1366 1391 1389 1371 1354 1337 1309 1281 1269 1255 1239 1227 1223 1221 1228 1236 1239 1240 1242 1250 1269 1271 1281 1302 1334 1375 1412 1438 1417 1342 1264 1195 1130 1070 1014 949 860 783 705 628 569 521 509 512 514 522 533 568 630 717 818 909 994 1044 1112 1187 1265 1317 1373 1422 1457 1498 1560 1588 1574 1585 1611 1646 1640 1602 1582 1597 1604 1606 1608 1621 1630 1610 1598 1606 1626 1650 1676 1694 1741 1801 1802 1804 1815 1839 1915 1976 1975 1943 1953 2005 2025 1996 1992 1976 1987 2002 2054 2106 2135 2151 2188 2221 2241 2182 2138 2120 2097 2084 2057 2011 1947 1886 1830 1771 1723 1676 1645 1629 1610 1570 1524 1484 1461 1442 1410 1364 1311 1285 1265 1231 1187 1155 1124 1094 1065 1051 1013 979 956 960 984 1000 1010 1029 1051 1076 1055 1068 1122 1155 1212 1274 1321 1375 1482 1314 1209 1111 1036 1002 951 894 832 810 836 860 892 907 908 915 931 937 949 971 1002 1043 1076 1094 1092 1068 1015 938 837 717 589 476 413 431
532 529 540 548 545 553 565 572 571 564 559 556 556 556 556 557 559 561 562 564 565 568 571 579 603 626 656 699 742 781 802 816 829 856 888 918 950 983 1010 1038 1070 1088 1100 1114 1100 1104 1119 1122 1150 1188 1237 1295 1343 1377 1379 1370 1380 1396 1390 1379 1369 1346 1314 1288 1277 1255 1239 1230 1231 1240 1258 1265 1265 1266 1268 1290 1304 1303 1314 1336 1378 1432 1461 1462 1415 1325 1240 1172 1110 1062 1007 935 857 783 702 627 559 517 511 514 513 517 529 581 640 722 824 912 986 1037 1111 1204 1262 1321 1372 1414 1459 1508 1578 1613 1600 1622 1647 1687 1676 1639 1624 1639 1653 1657 1665 1681 1688 1669 1648 1643 1663 1685 1700 1710 1749 1822 1861 1842 1855 1869 1911 1994 2024 2003 2013 2035 2062 2032 2033 2033 2052 2059 2100 2154 2191 2205 2218 2233 2232 2176 2131 2122 2094 2051 2025 2017 1961 1913 1837 1770 1707 1668 1628 1591 1542 1511 1464 1437 1413 1392 1365 1325 1296 1286 1275 1227 1145 1094 1061 1036 1012 997 975 959 958 976 1021 1047 1050 1069 1102 1137 1151 1156 1210 1265 1342 1462 1475 1496 1528 1483 1295 1179 1101 1057 998 924 841 840 888 921 951 970 978 982 981 1001 1029 1059 1100 1143 1162 1152 1115 1055 978 887 779 663 549 454 404 431
516 522 536 543 541 544 553 557 556 555 554 554 554 554 556 559 560 564 566 568 568 569 574 582 607 633 666 717 759 795 807 813 820 851 891 926 946 980 1014 1045 1080 1102 1131 1169 1164 1154 1164 1171 1193 1215 1254 1308 1359 1399 1404 1398 1402 1406 1396 1385 1375 1344 1316 1293 1279 1255 1240 1236 1249 1275 1289 1295 1299 1298 1310 1337 1365 1354 1359 1386 1428 1465 1477 1436 1364 1281 1216 1152 1100 1057 1001 914 841 769 688 616 542 512 511 514 513 514 538 599 657 730 846 968 1017 1071 1131 1229 1290 1350 1390 1427 1459 1512 1582 1636 1642 1662 1695 1736 1726 1692 1690 1689 1701 1718 1733 1751 1732 1712 1697 1693 1711 1725 1742 1747 1778 1826 1905 1888 1882 1896 1920 1964 2046 2052 2063 2079 2096 2074 2066 2075 2093 2126 2150 2178 2207 2206 2190 2178 2165 2128 2084 2071 2066 2013 1973 1950 1937 1911 1839 1765 1683 1646 1609 1560 1500 1468 1423 1399 1377 1370 1365 1421 1381 1324 1280 1209 1126 1068 1031 1016 996 979 965 957 974 1006 1055 1090 1090 1115 1155 1183 1192 1201 1244 1356 1475 1532 1535 1548 1549 1495 1352 1228 1146 1071 993 910 858 890 936 978 1007 1034 1042 1049 1046 1081 1127 1165 1201 1222 1203 1151 1082 1009 931 841 732 627 531 451 408 431
498 532 552 555 553 551 551 550 551 553 553 555 555 556 558 560 560 565 569 571 572 571 576 589 619 640 674 723 760 797 810 812 818 848 895 925 943 982 1026 1057 1085 1124 1173 1228 1240 1232 1235 1237 1242 1249 1274 1322 1375 1416 1434 1430 1423 1413 1405 1403 1381 1341 1310 1295 1283 1258 1248 1251 1287 1317 1322 1329 1339 1335 1347 1380 1407 1398 1413 1453 1480 1479 1449 1392 1315 1245 1191 1136 1097 1057 997 899 833 757 672 592 529 512 512 514 511 521 557 618 681 771 904 1012 1067 1124 1203 1253 1315 1373 1412 1449 1478 1515 1581 1650 1688 1715 1751 1781 1785 1757 1741 1734 1747 1774 1789 1794 1775 1740 1727 1736 1754 1766 1770 1778 1803 1850 1913 1927 1914 1922 1933 1976 2042 2100 2104 2128 2145 2113 2098 2114 2141 2149 2141 2148 2160 2134 2124 2108 2100 2074 2034 2007 2008 1976 1931 1892 1879 1862 1814 1737 1638 1602 1562 1515 1465 1439 1414 1402 1413 1429 1449 1478 1397 1314 1251 1185 1114 1046 1014 1008 990 976 960 955 981 1036 1087 1116 1130 1162 1195 1222 1239 1257 1316 1437 1575 1596 1581 1545 1507 1440 1354 1247 1141 1052 968 894 895 949 987 1034 1075 1103 1112 1128 1155 1192 1240 1280 1327 1257 1187 1102 1024 956 889 805 709 624 548 479 428 431
504 546 546 544 547 549 552 552 554 555 555 556 556 557 559 559 561 566 570 576 578 579 584 604 628 646 681 723 760 799 812 811 815 841 886 925 966 997 1037 1087 1128 1177 1233 1286 1310 1310 1314 1313 1297 1300 1319 1354 1403 1437 1457 1452 1440 1434 1430 1410 1372 1333 1308 1301 1286 1264 1262 1281 1325 1351 1361 1374 1384 1380 1392 1427 1451 1456 1478 1511 1502 1458 1392 1338 1275 1217 1168 1124 1091 1056 987 895 826 742 648 573 521 512 512 513 512 527 570 634 698 810 985 1046 1110 1179 1242 1297 1358 1401 1424 1466 1498 1535 1585 1653 1719 1776 1802 1836 1845 1819 1800 1798 1796 1805 1817 1833 1826 1788 1768 1764 1769 1780 1788 1809 1837 1867 1910 1956 1954 1943 1943 1976 2027 2093 2139 2167 2177 2147 2136 2138 2127 2091 2071 2088 2092 2070 2057 2042 2035 2011 1980 1947 1937 1913 1879 1845 1822 1801 1761 1683 1599 1562 1522 1491 1469 1473 1479 1480 1510 1519 1505 1458 1346 1269 1215 1166 1101 1038 994 991 978 963 961 967 1020 1075 1113 1140 1152 1184 1218 1243 1271 1304 1348 1522 1590 1609 1551 1486 1427 1380 1317 1230 1126 1044 959 906 934 999 1052 1108 1145 1172 1173 1224 1260 1304 1353 1392 1403 1254 1146 1052 978 918 857 784 710 651 601 535 459 431
515 543 537 537 542 545 550 553 555 557 558 558 559 560 560 560 562 565 571 581 589 592 602 621 629 650 680 713 748 795 812 813 818 843 889 944 994 1025 1065 1124 1176 1223 1282 1332 1346 1356 1366 1366 1350 1346 1360 1390 1427 1464 1490 1473 1463 1452 1427 1391 1354 1326 1313 1305 1286 1270 1284 1314 1354 1383 1410 1427 1426 1423 1441 1483 1505 1521 1538 1528 1495 1437 1353 1301 1247 1201 1149 1107 1075 1042 968 885 808 723 633 554 515 513 514 514 512 531 584 651 724 845 1009 1087 1149 1209 1261 1334 1410 1446 1475 1489 1531 1561 1591 1652 1736 1787 1810 1831 1855 1864 1866 1856 1849 1834 1840 1868 1870 1839 1813 1800 1785 1776 1785 1814 1846 1875 1907 1942 1968 1969 1966 1981 2024 2088 2149 2176 2160 2133 2126 2094 2065 2016 1998 2002 2007 2002 1986 1963 1950 1944 1908 1879 1851 1824 1810 1788 1765 1734 1693 1630 1588 1559 1529 1521 1523 1540 1557 1569 1566 1531 1479 1400 1301 1236 1188 1144 1099 1039 1007 984 972 968 974 1002 1057 1111 1140 1179 1192 1221 1242 1261 1291 1332 1376 1500 1579 1570 1500 1436 1380 1335 1273 1199 1091 1033 963 926 963 1038 1110 1168 1201 1216 1255 1326 1369 1413 1449 1452 1380 1240 1123 1033 958 895 840 782 728 681 620 544 479 439
525 534 534 537 542 545 550 554 556 561 561 562 563 564 563 563 564 564 577 594 599 613 629 638 636 655 679 710 743 789 820 823 831 862 913 978 1018 1053 1089 1144 1202 1272 1320 1344 1362 1383 1398 1402 1399 1394 1395 1405 1445 1479 1507 1489 1466 1441 1406 1372 1341 1324 1319 1307 1291 1285 1309 1346 1380 1420 1456 1474 1464 1458 1477 1519 1545 1558 1551 1521 1485 1428 1340 1280 1231 1185 1131 1086 1045 995 931 863 789 708 631 530 514 516 513 511 510 536 597 673 745 877 1045 1124 1179 1219 1263 1334 1411 1478 1515 1532 1555 1588 1607 1650 1727 1770 1793 1816 1835 1863 1883 1888 1870 1864 1874 1898 1903 1879 1861 1846 1819 1801 1804 1831 1865 1894 1918 1941 1970 1987 1998 2018 2052 2108 2157 2156 2102 2070 2054 2023 1992 1944 1928 1916 1919 1914 1891 1871 1854 1846 1823 1800 1765 1749 1740 1731 1703 1670 1635 1601 1576 1559 1554 1557 1573 1589 1591 1578 1553 1505 1444 1371 1296 1236 1177 1129 1077 1039 1004 984 975 974 998 1051 1117 1167 1197 1231 1250 1289 1295 1296 1301 1347 1392 1465 1546 1530 1479 1423 1377 1322 1234 1147 1076 1035 978 955 996 1077 1151 1218 1303 1346 1389 1425 1470 1506 1502 1437 1339 1221 1119 1032 948 875 834 795 744 691 634 567 498 444
530 531 537 542 545 547 552 556 558 562 565 566 566 566 567 566 565 578 603 613 621 639 651 650 647 665 681 706 743 786 819 826 848 880 938 996 1036 1073 1119 1174 1235 1290 1324 1351 1386 1418 1437 1439 1444 1430 1422 1433 1463 1492 1507 1479 1444 1422 1397 1370 1338 1329 1328 1309 1297 1307 1336 1376 1411 1448 1476 1496 1499 1490 1511 1549 1572 1565 1539 1507 1460 1410 1341 1268 1213 1163 1109 1069 1017 944 885 835 774 691 618 522 514 516 515 512 514 554 620 691 755 923 1087 1165 1188 1217 1253 1310 1378 1450 1501 1516 1541 1576 1603 1649 1712 1759 1795 1818 1821 1840 1867 1875 1867 1864 1875 1896 1916 1919 1912 1903 1871 1855 1855 1883 1914 1932 1951 1976 2003 2023 2044 2070 2109 2157 2186 2142 2067 2037 2006 1975 1942 1897 1876 1855 1845 1834 1811 1787 1775 1760 1754 1734 1703 1694 1680 1669 1649 1628 1603 1584 1570 1567 1571 1576 1582 1582 1571 1545 1499 1459 1409 1358 1299 1218 1163 1113 1057 1028 1002 990 979 987 1027 1101 1184 1246 1275 1293 1306 1339 1350 1352 1345 1378 1417 1465 1529 1516 1492 1453 1401 1311 1197 1119 1103 1053 1006 989 1033 1105 1190 1280 1392 1450 1486 1508 1527 1537 1480 1386 1283 1187 1107 1022 928 854 834 804 754 702 645 583 513 459
528 531 538 545 550 550 553 557 561 564 568 570 570 570 570 571 585 609 615 631 650 654 655 655 672 683 685 711 745 777 805 828 858 897 957 1014 1056 1105 1154 1201 1253 1286 1309 1356 1402 1445 1468 1469 1470 1452 1448 1461 1477 1504 1516 1480 1437 1419 1406 1376 1349 1340 1339 1320 1320 1329 1365 1410 1450 1479 1499 1517 1530 1526 1547 1574 1587 1565 1526 1479 1423 1379 1335 1261 1191 1145 1091 1056 1003 918 843 788 738 674 591 522 515 516 515 515 526 577 642 702 815 992 1082 1154 1169 1185 1225 1287 1343 1402 1435 1445 1479 1524 1571 1628 1690 1745 1789 1798 1779 1787 1805 1808 1812 1808 1823 1855 1890 1919 1946 1955 1934 1931 1923 1933 1961 1971 1982 2012 2043 2070 2103 2129 2170 2209 2203 2130 2082 2071 2058 2011 1923 1878 1846 1824 1792 1778 1758 1732 1721 1706 1695 1680 1657 1652 1636 1622 1606 1597 1588 1566 1563 1562 1564 1561 1553 1534 1510 1486 1454 1414 1377 1328 1268 1187 1164 1110 1051 1020 1002 992 987 1015 1070 1150 1230 1299 1338 1356 1360 1378 1389 1396 1405 1429 1452 1491 1537 1538 1522 1493 1423 1300 1183 1108 1102 1056 1009 1007 1061 1127 1232 1338 1450 1506 1538 1542 1534 1503 1424 1323 1224 1142 1070 988 900 836 817 795 739 693 648 589 526 464
530 533 539 554 559 559 557 560 564 569 573 575 577 578 577 593 623 633 647 658 657 662 662 671 687 695 692 721 744 775 806 839 876 923 984 1038 1079 1132 1176 1225 1261 1286 1308 1342 1380 1434 1469 1479 1480 1476 1482 1495 1492 1507 1531 1496 1450 1431 1411 1386 1372 1356 1348 1341 1357 1358 1391 1438 1481 1513 1538 1551 1559 1562 1560 1559 1554 1538 1496 1444 1388 1341 1302 1241 1171 1123 1073 1039 992 900 821 749 689 641 570 526 517 521 519 515 538 605 663 700 854 983 1077 1124 1134 1157 1205 1262 1307 1351 1366 1384 1429 1479 1537 1601 1659 1708 1739 1735 1722 1727 1739 1744 1742 1744 1760 1796 1828 1870 1917 1964 1978 2000 1983 1969 1986 2002 2016 2060 2097 2128 2160 2189 2223 2226 2191 2131 2115 2117 2116 2064 1950 1904 1862 1817 1765 1743 1726 1699 1682 1665 1651 1633 1620 1618 1601 1587 1585 1591 1580 1556 1553 1556 1549 1534 1509 1489 1471 1438 1412 1374 1349 1299 1261 1232 1198 1125 1060 1016 1001 999 1002 1049 1109 1179 1251 1326 1371 1405 1405 1409 1425 1437 1450 1473 1502 1552 1568 1611 1577 1533 1436 1312 1200 1117 1089 1054 1005 1019 1080 1161 1288 1403 1496 1540 1560 1556 1515 1450 1361 1265 1175 1094 1018 945 877 826 802 767 701 644 609 576 520 462
536 536 548 560 563 560 560 564 567 570 574 581 586 587 594 632 645 654 663 661 663 666 671 691 699 700 710 735 757 790 823 854 898 950 1013 1061 1118 1163 1200 1246 1277 1306 1323 1338 1364 1400 1452 1478 1495 1500 1510 1540 1532 1520 1549 1524 1472 1449 1423 1398 1388 1370 1361 1364 1384 1399 1428 1463 1498 1532 1565 1584 1580 1555 1529 1507 1496 1482 1450 1405 1364 1320 1261 1197 1137 1090 1054 1021 958 873 788 711 646 599 554 528 520 523 522 522 552 626 688 743 925 993 1045 1071 1080 1124 1177 1215 1258 1282 1298 1330 1389 1446 1517 1577 1617 1656 1678 1674 1658 1663 1674 1677 1679 1674 1707 1739 1772 1816 1864 1928 1979 2022 2037 2023 2022 2038 2050 2099 2155 2196 2224 2260 2252 2205 2181 2167 2165 2164 2162 2103 1996 1943 1884 1817 1759 1727 1710 1685 1656 1637 1630 1610 1597 1594 1580 1576 1584 1579 1558 1541 1543 1550 1534 1508 1476 1453 1427 1397 1375 1340 1320 1301 1318 1292 1214 1135 1072 1023 1010 1013 1037 1075 1127 1191 1258 1332 1397 1449 1452 1448 1452 1466 1491 1535 1624 1699 1746 1714 1647 1558 1451 1347 1248 1147 1074 1049 1019 1048 1108 1198 1294 1410 1517 1569 1587 1557 1485 1399 1309 1220 1134 1052 975 919 872 819 778 733 678 620 573 544 506 469
537 545 557 561 557 556 560 565 569 575 581 587 593 596 622 651 661 663 664 667 671 673 686 704 709 712 740 761 776 808 833 866 916 973 1029 1076 1138 1180 1212 1258 1307 1353 1365 1360 1371 1387 1415 1461 1505 1518 1535 1575 1581 1548 1565 1560 1512 1479 1444 1417 1402 1386 1384 1384 1404 1433 1463 1491 1521 1548 1584 1614 1578 1526 1484 1447 1437 1420 1415 1372 1349 1299 1231 1160 1100 1060 1031 983 911 841 752 675 614 577 544 526 524 528 528 532 568 647 712 779 895 971 1004 1018 1039 1081 1127 1168 1204 1218 1243 1301 1369 1428 1485 1528 1559 1593 1620 1614 1596 1610 1614 1610 1620 1614 1661 1689 1726 1778 1831 1894 1941 1982 2026 2059 2091 2097 2088 2124 2187 2252 2303 2318 2261 2208 2196 2213 2241 2252 2219 2135 2044 1975 1902 1825 1762 1742 1722 1695 1670 1659 1641 1616 1595 1589 1583 1570 1558 1547 1533 1530 1532 1528 1511 1480 1451 1422 1390 1370 1359 1334 1343 1377 1362 1276 1203 1138 1084 1038 1016 1027 1064 1100 1149 1209 1271 1345 1417 1484 1509 1537 1561 1580 1608 1644 1742 1796 1853 1841 1707 1583 1464 1427 1329 1217 1075 1045 1035 1086 1136 1210 1295 1380 1487 1582 1603 1545 1453 1358 1270 1184 1096 1020 957 912 880 815 757 720 672 619 575 541 506 469
